2246.6523 2229.5664 2210.2725 2204.7122 2202.1123 2199.4797 2199.4348 2200.0571 2199.9675 2195.7297 2181.1292 2159.2466 2146.0085 2141.9907 2137.7822 2137.8181 2145.4902 2139.7986 2137.6167 2139.0066 2140.4971 2141.4734 2138.5327 2128.5796 2111.6677 2105.5627 2105.5208 2104.9873 2100.0796 2097.6177 2090.0833 2062.7004 2065.5156 2082.2302 2112.1160 2122.9380 2127.1184 2123.3501 2119.0168 2116.9661 2117.0608 2118.6484 2120.7476 2128.3674 2137.7026 2142.8264 2136.6235 2128.4775 2127.0576 2116.3652 2113.6599 2122.5107 2102.0583 2088.3425 2086.3848 2090.2412 2096.0261 2103.7571 2104.5752 2096.4753 2082.8325 2072.5525 2065.5276 2057.0869 2048.4336 2041.2164 2036.2753 2036.3157 2033.7373 2033.2233 2035.5234 2029.3228 2010.0770 1988.5131 1985.0696
2267.8818 2251.5266 2233.9160 2215.2610 2207.9048 2208.8542 2208.3608 2206.7087 2202.9355 2197.5562 2183.4333 2159.2898 2147.0508 2144.1794 2142.1968 2146.1809 2149.9556 2146.3726 2143.2991 2143.3027 2144.4487 2149.0950 2152.0916 2131.2368 2118.1946 2115.1643 2115.4355 2115.6086 2113.7830 2109.7146 2086.4622 2071.5098 2074.0220 2106.3093 2133.8833 2134.4114 2130.4819 2125.6047 2122.4070 2119.5574 2119.3491 2119.2861 2119.5588 2125.0603 2136.6897 2146.5869 2146.7224 2147.1143 2141.4187 2139.2305 2137.4993 2132.3057 2114.8835 2100.1133 2094.3684 2093.1233 2096.0767 2103.4487 2110.3164 2109.3599 2096.9490 2079.1140 2069.7673 2063.6970 2055.2991 2048.0637 2044.3903 2042.4537 2042.2383 2042.8311 2043.2095 2025.6436 2011.3463 1999.7528 1992.3380
2290.9253 2279.4883 2259.4341 2231.1184 2216.6562 2217.6130 2221.9856 2217.7661 2206.6567 2196.6448 2182.8052 2162.3167 2153.9636 2148.4109 2146.4988 2147.9409 2150.6475 2146.2292 2144.9199 2146.1938 2150.3828 2162.4570 2157.1240 2144.7378 2134.2708 2130.6511 2129.3589 2129.3687 2126.6401 2110.7898 2091.0593 2081.1714 2088.6787 2130.0569 2143.7710 2138.6099 2132.3225 2128.0825 2124.7722 2122.5442 2120.4404 2119.6870 2119.9285 2124.2651 2136.2683 2147.9680 2154.5127 2159.6550 2147.8047 2139.1445 2134.2188 2127.3645 2112.8958 2103.9258 2099.7551 2097.9675 2098.1267 2104.1650 2112.2561 2119.1057 2100.4146 2082.4700 2073.1499 2067.1895 2058.8813 2053.5500 2048.8992 2046.4644 2046.5917 2050.7983 2047.0028 2028.9919 2016.4772 2001.4037 1996.4150
2318.0999 2300.5999 2278.8984 2249.8188 2227.3245 2226.3921 2230.3911 2239.0842 2217.6687 2202.7544 2189.2307 2168.4456 2158.1292 2154.7456 2152.8438 2152.9578 2153.9973 2148.4055 2148.9788 2155.3372 2166.0293 2172.7502 2160.6794 2147.8137 2143.6816 2143.1201 2143.8262 2143.7266 2137.1807 2109.6436 2092.3542 2088.6743 2104.2822 2128.7981 2153.2871 2143.0413 2133.7585 2130.3220 2127.2480 2124.4653 2121.6858 2120.3867 2120.1509 2122.4050 2135.8008 2149.4617 2158.5886 2163.9661 2139.3198 2130.0469 2126.4604 2122.1555 2112.7930 2106.0291 2103.7231 2102.4661 2102.9272 2107.4419 2116.0522 2126.2651 2112.8000 2096.4033 2083.5732 2072.8979 2064.8923 2058.3496 2052.1741 2049.0132 2048.9377 2054.6045 2052.9470 2031.2142 2017.5903 2006.0424 1998.7723
2336.8711 2322.1726 2295.0234 2266.3774 2242.0989 2238.8977 2242.1272 2254.5376 2237.1960 2217.8015 2202.1904 2185.7366 2169.4888 2158.6138 2156.5222 2156.5010 2157.1724 2159.2271 2162.8513 2173.0125 2184.4272 2167.3901 2148.0378 2144.8740 2143.2017 2143.6982 2147.2898 2150.5962 2135.7722 2108.0405 2096.8809 2101.2449 2111.8418 2128.4641 2149.9282 2150.5706 2138.2471 2132.2046 2128.6001 2124.8589 2121.6335 2120.5039 2120.4424 2122.7273 2136.0110 2152.0334 2163.1477 2158.1790 2129.1580 2121.9407 2121.1941 2118.5750 2113.1694 2110.1382 2107.8877 2106.2368 2106.7090 2109.8071 2118.5374 2128.0669 2125.7161 2111.9666 2094.3220 2082.1812 2071.1909 2062.0769 2055.8430 2049.4302 2048.8860 2051.1733 2058.0469 2040.8798 2028.9922 2000.0320 1989.0511
2345.4224 2330.9321 2308.7153 2280.6636 2255.7959 2250.2310 2250.1357 2266.3774 2250.5613 2233.4128 2218.4434 2203.0901 2186.8025 2172.1179 2158.7791 2159.1038 2162.5947 2170.8638 2180.5979 2193.7751 2176.9915 2157.4055 2145.1125 2143.0464 2142.1624 2143.1387 2145.3228 2140.4983 2122.3496 2110.2566 2101.1274 2102.2341 2113.0698 2131.4629 2149.7520 2160.4395 2147.4211 2133.8496 2130.0906 2125.6265 2122.3535 2120.5044 2120.4934 2123.8877 2140.6138 2151.6348 2159.3164 2149.5386 2122.0952 2120.4763 2118.8748 2116.9976 2113.2964 2112.2874 2112.1675 2110.4993 2109.9597 2112.2048 2120.2026 2128.0630 2120.5364 2109.6592 2096.8745 2086.5933 2075.7634 2063.9602 2049.3689 2045.4534 2044.1576 2044.6643 2051.5903 2040.8044 2018.6617 1994.2083 1983.5095
2347.6982 2336.3223 2314.3149 2293.4043 2276.0730 2263.9792 2262.2224 2278.0200 2265.2590 2245.9131 2229.4863 2215.4636 2199.5188 2187.5369 2171.1267 2170.2249 2173.9224 2182.9360 2186.3591 2176.2869 2156.4756 2143.1482 2138.3594 2138.6599 2140.3076 2139.5842 2137.3564 2129.8640 2119.9651 2110.9573 2105.2654 2107.7766 2117.3872 2129.7112 2145.5872 2163.6641 2151.5781 2135.3848 2131.5251 2128.8979 2124.4478 2121.7061 2121.9077 2127.5681 2139.2515 2146.9871 2154.8418 2139.4910 2120.9822 2119.0361 2117.6736 2116.1741 2114.2461 2114.0125 2115.3147 2116.5820 2113.9109 2114.8035 2121.1399 2126.2942 2118.3154 2106.9270 2096.1575 2089.1377 2080.7708 2065.6650 2049.3408 2045.0928 2039.0775 2037.5168 2030.3839 2015.8831 2000.3986 1980.5272 1973.2113
2345.4900 2337.2363 2322.2542 2305.8318 2300.3262 2283.4087 2276.7642 2278.5212 2274.9434 2254.0564 2236.3801 2221.9832 2212.1741 2200.2710 2182.0415 2179.5251 2179.4573 2175.5066 2171.1348 2159.4763 2140.7886 2134.5703 2132.3333 2136.2573 2137.2234 2135.7117 2131.6545 2121.7290 2115.7727 2111.0037 2109.6545 2114.7571 2123.3962 2130.1465 2143.9829 2159.9944 2155.8462 2143.3848 2134.8586 2132.7893 2127.5193 2124.8867 2125.6086 2130.3000 2138.8379 2146.0200 2151.9678 2136.1118 2120.2786 2118.9146 2116.4812 2115.0615 2115.2302 2116.4062 2122.2495 2123.2456 2118.6826 2118.7339 2121.9358 2125.3098 2118.2871 2106.8904 2096.5725 2093.0042 2081.3884 2069.5930 2056.9949 2047.6577 2038.9242 2032.0685 2020.7832 2006.4081 1991.1278 1977.5853 1972.0371
2344.4934 2336.2000 2327.6296 2319.1633 2316.8826 2299.2056 2288.3342 2287.0562 2281.6165 2263.1089 2241.7234 2232.2512 2225.1709 2209.7434 2195.9441 2186.6794 2185.4473 2166.6880 2156.2529 2143.0005 2132.9365 2127.5168 2127.5491 2133.0110 2134.6167 2130.3435 2123.3313 2117.5706 2113.0615 2111.4905 2112.6318 2119.2581 2126.1135 2132.8455 2145.5615 2159.1682 2162.9468 2155.9033 2143.1494 2135.6360 2132.7700 2128.9314 2129.1213 2132.4634 2139.1140 2145.5906 2150.0225 2135.3877 2121.5020 2119.7217 2112.9268 2111.9993 2112.5168 2116.9824 2122.2581 2124.7878 2120.7581 2118.8115 2119.5684 2122.9258 2120.6489 2110.4150 2104.7417 2097.0938 2077.5457 2069.8325 2062.9336 2062.8359 2050.6233 2033.2147 2025.1265 2013.3262 1996.6968 1988.9515 1985.0892
2343.0955 2337.2686 2330.8652 2329.2537 2319.0154 2304.7156 2292.3860 2287.8674 2282.4541 2268.5083 2249.3484 2239.6812 2238.8335 2234.8013 2212.8738 2198.9937 2187.4263 2164.0994 2149.4800 2138.4189 2130.0957 2124.8005 2122.4243 2122.0994 2122.1394 2126.0139 2120.8152 2116.0037 2112.8279 2112.7598 2117.8193 2124.0120 2129.4136 2137.7869 2148.2820 2163.3230 2166.9041 2160.8315 2145.9653 2141.3638 2139.9404 2131.9365 2131.9861 2136.1062 2142.7637 2147.8777 2152.0415 2142.2993 2134.2241 2120.4434 2109.5066 2109.3049 2109.6396 2113.7083 2121.0725 2125.4333 2121.8953 2117.1482 2113.8735 2116.0022 2116.6155 2116.2983 2111.4509 2102.0300 2083.2900 2072.4839 2071.5942 2071.9792 2061.7300 2050.7180 2037.3369 2025.5044 2001.8510 1993.9585 1991.6049
2343.1941 2338.1506 2334.6296 2334.0024 2324.8330 2309.2388 2295.6682 2289.2566 2282.1953 2267.4321 2252.0381 2247.1965 2245.5354 2240.4043 2223.8079 2206.9531 2186.4053 2164.0015 2149.4753 2137.4844 2126.8411 2122.2014 2121.0559 2120.5493 2119.7671 2119.8213 2117.6448 2114.4058 2113.5859 2116.2893 2123.8481 2127.4875 2131.7847 2139.5237 2152.8257 2166.9170 2168.3774 2164.0698 2155.7561 2148.6414 2149.5083 2137.5581 2137.4504 2139.4468 2147.6736 2153.4500 2155.4653 2144.2109 2132.9707 2120.5815 2108.9697 2106.1904 2106.8098 2108.9041 2116.0068 2123.2517 2122.7986 2117.3091 2110.3701 2107.3059 2107.2900 2112.4373 2117.8296 2119.3015 2102.2068 2088.9712 2086.5776 2082.6604 2072.5728 2059.8564 2043.5653 2022.0667 2007.9702 1997.5833 1992.5756
2344.6663 2340.0100 2335.5239 2332.8284 2327.9917 2311.7048 2299.0034 2290.4167 2283.9614 2271.7078 2260.7947 2256.3521 2250.3926 2241.0469 2227.8909 2208.2024 2188.3105 2167.4302 2153.0115 2134.4812 2122.5081 2121.5625 2120.5664 2119.7217 2119.1960 2118.3650 2116.4189 2114.6899 2114.7366 2118.9780 2125.3535 2132.3857 2134.6433 2142.5571 2157.7810 2176.2153 2173.1848 2169.9724 2160.9856 2157.9802 2153.0630 2143.6440 2143.5867 2145.5920 2149.2402 2150.3757 2147.1204 2141.7173 2131.7480 2117.7449 2109.7319 2105.5540 2105.5149 2106.8455 2110.5991 2116.6768 2118.1118 2115.1626 2110.7808 2098.1284 2098.2717 2109.2483 2118.1360 2124.3381 2123.3770 2119.6594 2119.6028 2097.4663 2068.1697 2052.8777 2038.9104 2022.2979 2008.6395 1994.9908 1988.5487
2342.3953 2339.0039 2335.3333 2329.7998 2321.8848 2311.6255 2304.1460 2293.6057 2288.0923 2279.1260 2269.7908 2262.9922 2254.3345 2245.4404 2227.6072 2208.3362 2189.0291 2165.4214 2144.5688 2130.9370 2122.4788 2121.6252 2121.0864 2120.1604 2119.3716 2118.0542 2116.1199 2115.7976 2115.8933 2119.3901 2125.5066 2133.7117 2140.1787 2147.3438 2160.0457 2180.1643 2183.7014 2179.9299 2174.3665 2170.0391 2157.4646 2151.1987 2150.6375 2151.4958 2149.6030 2146.0190 2142.3342 2138.6821 2131.7629 2117.7888 2109.6738 2105.4050 2104.4263 2103.1140 2105.1431 2108.7590 2109.8015 2110.3987 2104.5823 2096.2014 2096.0256 2104.3757 2113.5657 2122.3416 2128.5708 2128.9375 2121.2356 2095.1714 2066.5361 2052.2285 2038.9037 2023.7473 2009.7410 1997.3342 1991.9974
2341.9780 2339.2356 2336.7161 2331.5286 2326.2866 2321.6821 2315.7444 2303.0613 2297.3865 2290.6204 2279.3577 2268.8169 2266.0537 2247.0298 2230.0674 2210.5823 2178.6890 2150.9055 2135.7725 2124.2456 2118.9714 2118.1699 2118.4973 2120.6304 2122.0811 2117.9248 2116.8044 2116.6882 2117.0051 2119.7917 2127.0139 2136.3723 2144.9500 2152.8479 2166.7561 2183.1396 2182.9841 2183.3972 2179.9199 2170.0610 2164.0229 2160.6682 2158.0127 2153.2583 2148.0173 2142.9160 2137.4395 2133.5994 2132.9285 2120.4211 2110.7056 2107.2297 2101.0774 2099.0212 2098.7004 2100.7390 2101.5720 2103.8906 2099.3201 2091.1594 2090.0635 2094.7988 2104.4995 2118.9473 2126.3376 2123.7285 2120.7373 2107.7700 2078.0911 2057.1343 2045.2460 2037.7665 2015.2222 2003.4050 1999.3384
2345.0125 2341.0662 2339.3838 2337.8936 2334.7622 2332.4739 2326.6196 2320.0842 2318.5120 2309.2434 2280.5828 2256.0334 2238.1106 2226.7778 2215.9460 2190.7827 2159.9319 2132.7178 2123.6357 2118.6028 2117.8040 2117.8040 2117.8040 2117.8040 2117.8040 2117.8040 2117.7593 2117.6860 2117.8118 2119.8245 2129.3345 2143.2993 2155.2993 2166.7397 2183.5847 2184.7168 2174.7681 2174.6807 2166.1250 2160.7603 2160.7217 2162.0200 2160.5271 2153.6621 2146.2556 2140.3347 2134.3276 2130.0388 2126.6050 2121.2896 2113.0283 2107.0208 2100.5613 2095.0889 2094.3569 2094.6814 2095.8191 2098.4485 2091.5771 2082.7463 2082.6436 2086.1753 2096.7764 2113.4280 2120.1450 2120.6875 2114.7859 2107.4536 2094.1992 2068.8850 2055.6628 2041.6740 2026.8027 2016.9910 2011.9180
2359.7214 2346.8787 2343.7209 2344.5354 2342.2473 2335.4810 2332.7532 2318.1833 2289.0488 2263.9673 2231.4517 2207.0933 2200.0312 2194.1147 2180.1150 2160.8557 2134.6174 2118.7766 2117.8040 2117.8040 2117.8040 2117.8040 2117.8040 2117.8040 2117.8040 2117.8040 2117.8040 2117.8040 2117.8040 2120.5598 2139.7261 2156.4336 2169.4617 2184.2334 2192.1777 2183.1794 2170.5986 2158.9561 2150.1060 2145.9900 2145.9807 2149.5159 2153.9219 2150.4612 2144.5737 2138.0942 2132.0366 2126.5161 2122.3000 2117.7749 2114.0840 2108.4265 2101.8843 2095.0596 2089.0115 2089.1584 2090.7683 2093.6277 2087.1650 2077.6074 2075.7161 2076.4058 2083.5386 2096.7236 2108.4583 2111.6003 2114.6716 2107.3770 2100.3372 2077.0886 2058.9324 2046.4915 2038.5890 2028.5668 2024.4558
2360.9150 2349.2024 2324.2649 2310.6897 2300.4082 2290.2173 2275.5728 2270.7695 2236.8384 2212.4226 2181.7451 2162.5649 2159.6460 2151.5593 2132.5623 2121.8677 2117.8040 2117.8040 2117.8040 2117.8040 2117.8040 2117.8040 2117.8040 2117.8040 2117.8040 2117.8040 2117.8040 2117.8040 2117.8040 2123.9204 2148.0190 2166.3801 2185.4836 2195.4788 2192.9263 2181.0474 2171.4219 2157.2800 2146.5640 2138.6743 2132.4595 2133.7842 2139.8967 2141.3904 2139.0222 2135.0254 2128.0454 2123.0344 2116.9670 2112.7034 2109.6794 2107.8230 2103.7534 2096.7302 2086.1230 2083.8818 2086.4546 2089.5056 2087.1858 2077.3428 2070.7170 2070.5498 2075.4004 2080.8809 2091.9138 2102.4001 2110.6394 2111.3547 2105.9351 2090.2925 2065.7458 2048.3806 2035.9590 2025.1339 2020.2032
2311.3369 2294.7161 2276.3711 2257.8616 2248.6768 2230.9316 2205.9331 2202.1475 2177.1362 2154.3486 2138.5566 2123.0386 2118.3557 2117.8040 2117.8040 2117.8040 2117.8040 2117.8040 2117.8040 2117.8040 2117.8040 2117.8040 2117.8040 2117.8040 2117.8040 2117.8040 2117.8040 2117.8040 2119.6055 2136.5044 2161.5374 2184.8501 2203.1296 2199.3999 2183.2908 2176.4021 2162.4241 2156.3547 2151.0581 2146.2322 2131.0015 2124.6804 2123.6328 2122.2986 2126.9224 2127.5308 2122.5896 2116.0303 2110.1577 2108.5217 2106.6138 2104.5393 2102.7219 2099.5527 2087.1448 2079.3513 2082.0422 2086.3311 2080.1165 2068.0740 2064.6790 2063.1221 2063.6333 2067.5288 2077.1628 2091.7290 2101.8188 2103.5203 2097.7651 2090.4172 2068.0828 2047.7000 2035.3770 2023.6803 2019.7821
2266.6877 2243.2976 2222.1633 2205.1558 2193.5381 2177.5723 2156.3445 2145.3528 2127.5701 2117.8638 2117.8040 2117.8040 2117.8040 2117.8040 2117.8040 2117.8040 2117.8040 2117.8040 2117.8040 2117.8040 2117.8040 2117.8040 2117.8040 2117.8040 2117.8040 2117.8040 2117.8040 2117.8040 2134.5449 2166.9836 2190.6697 2206.9729 2206.8586 2191.0259 2179.4648 2172.3215 2161.2905 2156.1870 2152.1416 2145.7271 2133.1584 2122.7080 2110.4216 2103.5186 2108.2783 2118.4543 2113.4604 2108.4204 2104.6599 2102.8740 2102.2341 2102.3655 2100.8765 2096.9141 2089.2214 2075.5103 2073.8066 2074.5017 2067.3289 2059.6672 2059.4402 2057.3086 2056.9844 2056.9844 2063.3940 2078.2039 2090.3333 2097.1118 2089.6895 2081.8760 2067.3157 2045.8807 2033.6786 2024.7443 2021.3450
2218.0676 2195.2612 2179.2861 2163.4619 2149.7637 2131.0371 2117.8560 2117.8040 2117.8040 2117.8040 2117.8040 2117.8040 2117.8040 2117.8040 2117.8040 2117.8040 2117.8040 2117.8040 2117.8040 2117.8040 2117.8040 2117.8040 2117.8040 2117.8040 2117.8040 2117.8040 2121.0383 2144.2119 2175.2876 2200.7712 2214.8701 2207.5642 2205.0088 2189.2324 2178.4087 2169.8176 2160.3914 2156.3179 2151.5298 2144.2561 2133.4688 2126.5864 2109.7917 2087.1682 2090.6685 2105.5903 2103.9749 2101.8862 2098.4983 2096.6426 2097.0125 2098.2605 2099.2656 2093.2871 2084.3850 2074.0830 2062.9741 2061.5901 2059.4307 2054.8711 2055.4167 2056.6545 2056.9844 2056.9844 2056.9844 2067.8091 2082.4387 2095.0554 2088.7639 2079.4939 2065.0159 2044.8550 2033.7051 2025.6055 2023.0004
2182.1516 2161.2251 2147.5488 2131.1489 2118.0093 2117.8040 2117.8040 2117.8040 2117.8040 2117.8040 2117.8040 2117.8040 2117.8040 2117.8040 2117.8040 2117.8040 2117.8040 2117.8040 2117.8040 2117.8040 2117.8040 2117.8040 2117.8040 2117.8040 2117.8040 2124.2922 2145.8071 2178.1758 2201.3088 2217.6729 2218.1948 2211.9875 2211.7671 2194.6531 2188.6399 2181.1821 2172.7537 2159.4270 2150.1394 2144.7866 2136.4907 2128.9946 2103.9070 2075.6323 2075.0781 2091.4541 2094.5176 2093.1516 2090.7668 2090.4856 2092.0417 2095.0586 2094.6321 2086.1169 2079.2246 2071.0193 2061.6458 2054.1187 2052.3677 2053.3535 2054.5928 2055.9919 2056.9844 2056.9844 2056.9844 2065.9553 2082.7585 2098.9001 2090.5232 2079.4434 2063.1992 2044.6187 2033.8364 2027.4738 2026.0731
2156.0718 2139.6006 2125.3374 2117.8047 2117.8040 2117.8040 2117.8040 2117.8040 2117.8040 2117.8040 2117.8040 2117.8040 2117.8040 2117.8040 2117.8040 2117.8040 2117.8040 2117.8040 2117.8040 2117.8040 2117.8040 2117.8040 2117.8040 2117.8079 2129.3496 2149.4043 2175.5698 2191.7878 2206.8271 2226.0774 2219.9209 2224.7356 2222.4697 2204.1848 2186.0427 2171.5940 2159.0969 2146.1838 2135.6130 2126.8330 2113.2190 2105.9568 2090.2991 2067.7007 2064.3398 2074.7095 2082.8525 2082.4854 2082.8611 2083.4797 2086.6692 2091.7310 2087.2205 2081.6987 2076.0889 2069.7317 2061.6387 2052.1233 2049.3792 2050.5945 2053.3975 2060.6550 2063.2788 2064.9666 2062.9351 2066.5876 2079.5359 2093.6799 2096.2405 2081.1978 2066.7588 2045.7799 2034.4850 2030.5688 2029.0161
2134.9526 2118.4001 2117.8040 2117.8040 2117.8040 2117.8040 2117.8040 2117.8040 2117.8040 2117.8040 2117.8040 2117.8040 2117.8040 2117.8040 2117.8040 2117.8040 2117.8040 2117.8040 2117.8040 2117.8040 2117.8040 2117.8040 2117.8040 2133.5830 2157.5574 2176.8828 2195.3801 2211.1802 2230.9329 2230.6125 2238.0598 2223.0957 2206.5947 2189.9893 2174.2610 2161.1653 2153.5608 2142.7939 2128.3313 2112.5769 2092.7405 2079.6348 2066.3086 2056.3206 2052.9124 2060.3311 2071.4268 2071.9365 2073.1968 2076.9700 2084.5171 2088.3496 2085.5317 2075.3333 2071.6042 2067.7009 2062.6487 2052.1221 2045.7699 2045.7686 2051.4019 2058.9736 2066.5068 2072.9709 2073.8379 2073.0176 2077.0999 2084.9585 2101.2009 2087.8489 2068.8440 2052.8682 2037.7064 2034.0269 2031.2963
2117.8113 2117.8040 2117.8040 2117.8040 2117.8040 2117.8040 2117.8040 2117.8040 2117.8040 2117.8040 2117.8040 2117.8040 2117.8040 2117.8040 2117.8040 2117.8040 2117.8040 2117.8040 2117.8040 2117.8040 2117.8040 2121.2222 2140.6587 2165.5334 2192.0022 2210.1284 2233.6101 2238.1772 2242.4529 2235.5598 2220.0457 2205.3640 2187.5481 2172.9949 2157.1604 2147.3154 2138.4568 2128.5393 2118.6909 2108.4521 2090.2068 2071.5938 2058.0146 2049.6104 2043.3049 2048.8843 2058.0212 2058.7617 2061.2673 2074.1155 2079.7642 2084.5750 2085.6299 2073.6833 2069.3296 2066.5994 2062.4939 2049.1851 2045.7090 2045.5217 2045.6840 2052.9197 2063.1030 2074.2061 2080.5032 2070.0696 2069.8333 2074.7756 2087.6670 2082.5994 2071.4624 2060.9377 2051.1023 2036.3856 2032.8406
2117.8040 2117.8040 2117.8040 2117.8040 2117.8040 2117.8040 2117.8040 2117.8040 2117.8040 2117.8040 2117.8040 2117.8040 2117.8040 2117.8040 2117.8040 2117.8040 2117.8040 2117.8040 2117.8040 2117.8040 2132.8286 2157.2739 2178.9888 2200.9758 2229.4780 2248.3081 2242.5442 2236.5315 2229.2676 2214.9753 2199.5107 2186.0781 2170.3091 2152.8721 2140.3687 2128.2717 2119.8245 2112.9001 2102.9180 2095.9692 2089.4744 2071.0759 2054.0398 2041.6381 2034.8119 2036.9717 2045.5887 2046.1205 2049.5669 2066.9614 2073.9583 2076.8875 2081.3694 2071.8601 2064.2771 2063.5984 2062.9946 2049.1692 2045.7090 2044.7413 2044.6399 2044.6758 2055.4785 2068.8484 2081.5818 2061.2180 2056.6868 2057.2046 2063.2139 2068.5791 2060.6909 2053.1973 2044.8777 2034.2061 2031.2417
2117.8040 2117.8040 2117.8040 2117.8040 2117.8040 2117.8040 2117.8040 2117.8040 2117.8040 2117.8040 2117.8040 2117.8040 2117.8040 2117.8040 2117.8040 2117.8040 2117.8040 2117.8110 2124.8271 2142.8962 2166.7256 2190.9243 2212.1228 2233.8994 2255.9995 2233.5554 2207.8174 2205.0786 2202.6956 2192.5144 2180.2559 2167.4907 2151.9705 2134.0994 2118.5498 2108.2451 2102.3064 2096.4443 2085.9412 2081.0220 2079.5071 2071.9751 2054.1257 2037.6769 2029.3743 2026.9811 2030.2909 2032.6475 2040.1949 2056.1921 2065.6816 2069.8628 2074.1255 2066.3269 2058.8516 2058.8188 2059.1711 2057.2922 2048.7273 2047.4408 2043.8381 2042.5334 2047.3027 2057.6260 2065.1211 2051.6951 2039.1376 2036.6454 2036.4645 2050.6230 2051.3579 2044.7976 2038.7814 2033.8440 2030.6913
2117.8040 2117.8040 2117.8040 2117.8040 2117.8040 2117.8040 2117.8040 2117.8040 2117.8040 2117.8040 2117.8040 2117.8040 2117.8040 2117.8040 2118.1057 2127.3477 2130.5020 2139.4939 2158.8821 2180.1418 2208.6052 2229.3855 2258.1453 2251.5042 2232.8149 2210.6604 2182.4290 2174.8811 2178.4778 2172.4834 2160.3809 2148.1296 2127.0583 2109.3267 2099.9871 2092.8152 2084.9565 2077.2019 2070.0908 2068.2441 2068.4019 2064.8679 2053.9846 2037.3561 2029.2119 2020.6946 2020.0985 2022.4866 2030.6882 2044.7001 2059.3987 2063.2434 2064.2668 2059.4192 2053.8464 2052.1177 2052.6155 2053.1572 2057.4688 2050.3425 2046.9569 2040.9415 2041.1780 2047.3398 2053.0046 2047.2078 2034.1429 2032.1458 2032.7219 2035.4927 2040.6505 2036.8077 2036.3214 2035.6642 2031.9264
2117.8040 2117.8040 2117.8040 2117.8040 2117.8040 2117.8040 2117.8040 2117.8040 2117.8040 2117.8040 2117.8040 2118.0828 2118.5503 2128.4275 2139.3787 2150.8804 2165.0437 2182.4792 2198.5334 2225.8794 2245.6274 2274.1665 2247.8672 2226.2881 2208.4536 2191.4292 2170.6167 2162.7014 2161.5286 2155.1929 2143.1938 2126.6880 2109.8359 2094.8696 2084.8162 2075.7249 2067.3811 2061.2024 2056.6050 2056.2227 2057.2537 2058.0662 2053.0332 2042.7216 2032.0785 2018.3932 2014.1123 2016.0278 2023.3124 2035.4308 2048.6519 2053.4004 2053.9990 2052.7856 2048.9146 2045.8191 2046.0315 2046.4813 2053.6802 2053.7734 2049.8762 2035.8085 2035.2355 2039.7177 2045.0134 2043.1702 2033.6648 2027.5029 2026.9922 2029.4552 2033.7777 2036.2808 2036.3214 2036.5342 2034.1765
2117.8040 2117.8040 2117.8040 2117.8040 2117.8040 2117.8040 2117.8040 2117.8040 2119.6138 2127.0845 2132.8442 2138.3372 2148.8188 2159.8582 2170.9294 2189.8018 2209.6206 2231.6667 2246.5381 2269.6118 2265.7698 2247.8345 2220.8262 2202.3943 2189.4167 2175.7258 2163.8950 2154.4399 2145.5796 2138.6787 2126.6023 2111.1716 2096.6116 2082.3579 2070.7290 2063.3398 2053.9578 2047.0178 2044.2660 2044.3737 2046.2998 2047.5204 2048.1853 2043.0530 2034.6482 2020.5181 2008.6696 2008.2620 2015.2148 2028.2994 2037.9227 2040.9224 2043.2791 2044.4895 2041.2062 2038.5651 2037.9089 2038.9681 2048.8574 2054.6782 2049.9463 2035.3250 2028.6447 2033.3386 2039.8326 2039.1715 2034.2511 2024.1378 2023.4121 2026.3224 2032.7036 2036.3978 2037.0759 2038.0522 2036.1211
2117.8040 2117.8040 2117.8040 2117.8040 2117.8040 2117.8040 2117.8040 2129.3420 2147.7690 2153.3171 2160.2075 2171.4934 2183.9082 2199.0908 2216.2002 2238.8770 2259.5149 2290.9373 2294.0076 2262.9585 2243.1904 2220.2546 2196.1001 2183.4907 2171.9868 2161.2488 2152.2275 2146.4553 2138.4377 2124.0806 2115.1006 2103.0894 2086.9097 2069.8447 2058.9138 2051.5466 2043.3337 2036.3953 2034.7009 2034.7153 2035.9222 2037.5337 2039.9409 2036.7401 2030.1277 2019.1666 2004.1305 2003.0916 2011.0629 2025.6702 2026.4950 2028.5721 2031.3721 2036.2389 2036.9020 2030.2844 2030.0286 2033.2552 2043.3583 2048.6653 2043.7919 2035.6162 2020.9856 2022.1191 2032.2524 2034.3711 2028.4899 2022.6202 2022.0596 2024.6089 2032.7271 2038.6537 2036.5299 2026.5562 2021.5992
2117.8040 2117.8040 2117.8040 2117.8040 2117.8040 2117.8696 2140.7883 2162.6440 2176.0781 2182.4441 2193.0994 2208.3669 2229.5081 2246.6328 2270.4106 2288.5398 2302.4736 2300.7712 2277.4309 2244.4473 2214.9417 2196.1130 2179.7820 2168.8118 2159.8359 2149.9397 2140.4441 2133.6904 2127.6621 2113.0669 2106.5933 2098.4590 2082.5474 2063.5615 2051.9314 2044.5985 2037.7509 2030.8923 2027.6815 2026.1152 2027.2642 2028.2312 2031.3265 2030.7858 2026.4043 2015.0818 2000.3364 1998.4489 2000.6467 2015.5715 2014.9468 2017.6110 2020.6433 2028.0203 2027.9575 2021.1909 2021.0701 2027.4777 2037.3489 2041.1920 2035.8658 2030.9948 2012.1936 2009.9983 2014.2113 2026.9851 2025.5063 2021.0718 2020.8221 2022.5868 2029.5151 2037.1257 2022.8606 2000.8049 1992.5363
2117.8040 2117.8040 2117.8040 2117.8040 2120.8198 2146.7314 2175.2986 2200.4255 2209.8892 2213.7632 2229.2935 2249.2800 2287.3889 2311.7271 2330.5872 2327.4326 2302.8640 2284.2437 2263.3665 2234.3025 2203.4707 2175.0259 2165.5303 2156.9990 2148.0703 2139.1206 2130.8987 2123.6204 2119.2183 2110.7822 2100.2207 2090.7361 2075.6631 2059.3940 2046.1531 2037.0962 2031.2875 2026.7814 2022.9525 2020.2507 2020.1295 2020.6826 2023.2301 2023.6948 2022.0648 2013.6338 1998.8395 1994.3403 1994.7126 1997.6611 1999.1105 2004.4121 2008.7445 2015.5835 2014.2448 2009.6005 2009.7067 2018.5415 2028.3723 2033.8855 2029.0323 2025.9102 2008.6534 2003.0590 2012.7316 2023.9061 2023.4974 2018.5646 2016.5125 2018.0760 2022.8296 2021.1243 2003.8743 1973.2897 1962.0361
2117.8040 2117.8040 2117.8040 2134.2576 2159.9404 2186.9172 2221.8501 2248.7676 2242.1985 2248.1340 2265.4990 2295.9028 2335.8379 2355.0728 2355.0823 2310.2310 2291.5093 2274.4937 2253.9561 2225.8105 2195.9001 2168.5908 2154.3252 2146.1658 2137.6013 2130.0564 2122.2344 2116.6768 2111.8667 2104.1365 2099.4058 2085.7078 2067.0183 2055.1958 2043.7142 2035.8489 2033.2493 2029.4948 2023.6158 2019.2938 2014.5435 2012.9956 2010.6023 2010.2001 2014.4979 2009.8798 1999.0580 1991.0118 1988.0588 1987.3341 1988.1273 1988.9196 1992.9070 1998.1733 1997.2363 1995.9125 1998.7303 2007.5686 2015.6458 2019.6654 2017.2609 2012.0254 1990.1133 1993.1348 2008.8928 2017.2668 2019.8938 2015.4459 2010.9407 2011.6873 2013.6648 2002.9657 1972.3082 1953.8142 1946.6548
2117.8040 2121.9285 2146.5386 2169.9539 2203.8406 2235.3206 2275.8503 2284.9238 2285.4597 2292.3350 2300.4580 2322.7222 2351.3240 2368.2153 2343.7461 2305.3645 2280.4929 2268.1436 2246.7153 2221.4519 2195.9600 2168.7664 2150.0796 2139.4500 2130.0461 2121.8440 2114.8682 2109.6072 2103.4214 2095.1577 2084.9048 2070.6965 2058.6907 2050.3289 2043.7269 2043.5493 2044.5128 2043.0605 2032.3925 2021.6068 2014.7286 2009.9335 2005.3889 1999.7202 1993.7209 1996.5464 1991.3958 1989.6216 1987.4277 1981.4376 1980.3118 1981.6125 1981.6752 1982.4916 1983.0223 1983.2084 1989.6943 1998.5870 2002.5153 2003.6879 1993.5903 1989.8892 1975.9196 1979.8107 1990.6649 2008.0085 2014.8971 2014.1001 2006.7067 2000.1318 2000.0267 1997.5671 1954.2959 1933.3450 1925.9811
2126.0835 2149.1821 2177.2104 2213.2317 2256.6675 2304.7888 2332.2109 2332.8384 2330.4141 2331.0842 2330.6111 2337.6362 2363.7295 2351.4512 2336.4429 2305.7944 2271.4358 2255.7256 2236.9326 2214.9653 2196.6428 2173.4495 2152.1675 2139.9497 2130.0510 2121.2751 2112.0879 2102.1189 2094.5088 2085.5500 2076.8860 2067.4380 2060.2603 2051.0347 2049.4404 2059.6304 2068.5781 2069.5769 2046.0023 2026.3068 2018.3871 2013.3325 2012.3270 2001.5844 1991.0148 1987.0264 1984.4515 1981.8610 1980.9836 1978.3020 1975.7235 1975.5573 1974.5979 1974.3578 1973.7306 1975.2334 1982.1501 1989.0500 1986.9415 1986.1765 1979.7535 1974.8412 1966.7810 1967.8473 1974.4464 1988.7451 2006.7195 2008.7041 2004.1836 1987.9480 1977.7825 1971.6349 1944.4814 1924.7333 1921.2670
2155.3037 2184.5327 2221.6135 2255.2874 2306.7622 2368.7568 2395.3625 2376.8093 2371.4980 2357.8308 2352.3977 2356.6304 2354.9104 2341.5767 2327.4971 2303.9875 2271.0510 2247.7866 2228.2307 2206.5759 2186.9761 2170.7441 2158.7549 2144.5117 2131.8774 2121.6919 2111.9006 2101.9963 2092.6328 2084.3472 2078.0442 2074.2224 2064.1135 2056.9009 2057.3276 2070.6501 2078.8445 2069.8413 2054.4409 2035.6780 2022.9662 2020.5442 2017.3595 2004.3927 1994.5776 1989.8700 1985.3215 1981.8726 1978.8243 1976.1993 1974.7288 1973.6267 1972.4347 1971.0690 1970.1194 1969.9707 1974.9851 1976.7595 1974.1705 1968.3818 1963.0902 1960.4052 1958.5483 1958.6052 1962.5496 1969.2095 1978.2089 1979.7784 1979.1570 1970.7068 1949.4718 1942.8423 1927.2230 1920.8646 1920.5468
2191.3394 2223.6484 2255.5759 2304.1787 2354.4907 2408.0518 2430.1130 2420.4543 2411.6235 2389.8962 2374.6150 2363.6750 2347.4585 2335.3210 2321.9851 2299.8828 2270.1667 2252.3352 2229.4153 2206.8889 2187.2463 2170.4077 2158.5879 2144.0000 2132.1648 2125.2588 2117.8074 2110.8262 2097.8970 2091.8425 2087.1194 2084.7520 2070.8228 2061.6997 2061.0186 2069.7285 2078.1760 2061.6045 2052.0840 2041.4032 2028.1152 2028.0275 2021.0693 2006.2046 1998.3145 1993.1182 1987.8225 1984.2334 1981.4200 1978.9235 1975.2330 1973.3489 1971.9247 1970.1182 1967.3856 1964.9359 1961.9458 1961.3262 1960.2098 1959.4883 1958.5269 1953.0164 1951.5568 1948.8988 1948.6750 1950.1864 1955.3993 1956.7659 1954.6868 1942.8877 1935.3643 1929.5283 1924.0342 1922.8594 1925.3105
2230.2607 2261.1748 2315.5552 2364.0122 2402.8838 2436.1995 2459.9590 2446.4343 2422.3169 2397.9204 2376.4805 2357.7739 2342.0654 2332.5637 2319.3066 2299.1399 2276.9673 2256.0820 2234.7480 2219.4292 2198.7021 2177.2424 2169.8760 2157.2332 2139.8069 2130.3716 2122.8765 2113.0195 2106.4368 2101.7788 2095.5388 2091.3743 2080.3074 2067.5950 2067.4146 2070.0981 2079.3401 2062.2236 2052.3579 2041.7941 2037.1924 2037.2192 2031.1799 2016.3553 2004.2634 1997.0295 1991.7793 1987.2509 1985.7307 1983.5029 1979.4647 1975.3760 1974.4352 1973.2461 1969.7250 1967.5223 1962.0988 1962.0015 1960.2460 1959.4883 1958.5006 1950.8945 1947.3646 1943.7169 1940.3350 1939.7397 1940.4861 1939.9141 1937.6394 1932.4321 1930.2343 1926.3538 1924.5614 1924.8944 1935.1471
2267.5591 2318.1914 2365.4961 2405.8291 2450.6538 2476.4446 2475.5544 2447.1377 2422.1887 2396.8049 2375.1716 2357.5881 2342.2576 2332.9170 2317.3577 2302.0293 2285.3467 2270.9946 2243.1296 2222.2185 2199.0715 2185.6704 2182.1763 2166.0857 2150.4478 2139.3108 2129.3235 2120.7834 2114.6973 2107.7559 2100.5530 2098.3118 2086.9700 2071.0005 2070.9302 2074.3047 2084.3315 2072.7053 2060.0002 2047.7183 2045.3552 2050.9741 2051.4055 2028.0520 2012.9886 2003.1305 1998.2740 1994.1747 1992.1765 1989.6956 1988.2090 1985.9679 1986.0226 1977.6310 1974.9332 1975.0430 1980.2557 1991.4038 1998.0520 1982.9089 1964.0914 1951.8077 1948.4525 1944.4492 1940.2623 1938.1154 1935.9927 1934.4702 1932.6511 1930.1798 1928.2690 1926.5570 1926.6541 1931.6436 1947.6964
2309.5747 2367.4719 2421.1733 2453.6482 2479.6736 2506.5833 2487.3022 2448.8601 2424.1233 2398.6736 2377.6775 2359.7424 2345.4641 2335.0503 2326.6079 2312.2363 2297.0498 2271.1589 2248.3049 2228.8823 2209.1094 2206.4736 2203.7058 2183.5500 2164.7571 2151.2952 2135.5925 2130.4700 2120.8191 2113.0454 2107.1250 2102.6143 2090.8101 2076.6584 2078.4473 2088.6604 2094.1648 2089.0442 2074.6206 2057.6758 2054.6428 2061.4106 2060.2878 2038.6036 2024.1930 2012.6774 2007.8083 2006.3212 2002.8900 2001.7750 2005.5813 2002.6052 2005.6744 1991.7306 1980.8691 1980.4711 1989.5743 2003.5706 2009.9285 2012.6359 1993.9756 1963.4144 1954.6659 1949.1714 1944.3446 1940.8094 1937.2687 1935.9534 1934.0566 1932.5654 1931.8545 1932.0970 1934.4735 1942.3837 1959.6049
2330.9556 2374.5771 2432.7251 2487.3047 2512.0208 2528.3228 2509.5383 2468.7722 2442.6956 2407.6726 2378.8147 2363.3225 2351.6382 2347.5933 2343.9951 2332.5918 2310.3628 2278.6931 2258.4873 2240.8535 2221.9919 2208.6763 2194.0623 2180.0959 2167.4380 2153.7646 2146.6934 2136.9780 2125.3293 2117.5825 2112.8428 2105.7256 2091.2017 2083.6274 2091.9827 2104.3965 2103.6851 2096.3630 2083.9868 2071.5500 2064.7810 2064.9141 2073.5356 2062.4656 2042.3489 2025.5687 2023.1881 2021.7366 2024.3568 2026.0287 2026.0592 2025.9663 2013.7758 1997.6012 1988.6603 1987.8586 1999.1995 2011.9808 2018.3210 2016.9232 1997.9211 1975.5840 1961.2814 1953.2855 1947.0497 1943.6982 1940.3188 1940.5695 1939.2350 1938.6954 1938.1212 1938.8888 1940.7751 1950.4363 1971.3359
2376.9365 2405.5098 2443.8230 2492.0911 2538.8813 2548.0298 2526.8936 2484.8418 2450.8811 2418.5930 2387.6504 2378.6516 2371.3425 2371.3149 2367.2605 2354.2039 2329.4343 2291.8533 2265.6401 2252.8105 2227.9536 2217.3535 2198.6426 2183.1943 2178.4529 2171.0378 2152.8591 2140.5679 2132.2192 2123.4961 2118.0647 2109.7383 2092.4453 2090.4851 2103.2495 2115.6279 2113.1226 2111.8455 2094.3091 2082.1521 2075.8740 2073.6375 2080.4971 2084.2041 2066.6702 2049.5576 2043.7465 2043.3109 2049.1497 2046.1263 2041.5017 2030.3521 2016.7910 2004.9380 1995.9014 1996.0271 2005.6454 2018.4176 2026.2886 2018.6482 2002.2367 1978.4750 1966.0895 1955.1852 1950.9445 1947.1215 1946.5193 1947.8199 1947.6075 1944.9534 1944.4713 1946.6494 1951.0917 1961.1891 1978.3441
2410.1355 2445.6824 2479.7793 2526.8665 2548.4133 2549.5117 2524.3167 2486.3274 2445.4307 2416.2793 2398.4812 2387.8369 2374.8193 2359.5874 2351.2412 2348.4451 2342.5720 2318.9028 2281.7612 2257.0869 2242.8386 2240.5906 2224.2100 2208.3787 2197.4666 2182.5801 2160.8496 2145.8259 2139.4844 2130.9895 2122.4231 2110.1169 2097.0310 2096.2061 2113.1270 2127.9626 2121.7969 2119.2742 2120.5229 2100.3130 2086.4421 2082.7104 2092.9065 2097.3081 2088.7156 2081.0862 2076.1270 2073.6301 2073.7893 2065.0889 2055.3215 2034.5576 2020.8701 2011.4297 2002.6898 2004.3859 2010.0948 2020.8378 2030.9126 2019.8965 2006.3407 1983.6649 1971.7825 1962.7197 1955.8500 1951.8761 1951.5029 1959.5853 1957.2356 1952.5408 1950.9198 1952.3192 1963.9745 1975.4500 1993.3041
2450.1448 2493.9084 2518.4163 2557.5293 2541.3020 2534.0193 2513.2261 2469.5952 2433.9429 2407.0176 2386.5513 2371.0107 2354.8320 2342.4958 2336.2585 2329.5933 2322.4890 2301.3145 2281.4270 2268.0159 2270.2156 2251.4495 2235.7607 2222.9714 2202.7468 2186.3394 2167.4661 2153.1782 2144.9199 2136.4226 2126.0503 2113.1501 2101.5105 2102.1023 2121.2878 2142.0771 2134.2266 2123.5796 2119.6152 2113.9463 2101.2388 2092.4092 2102.6804 2111.3000 2110.7300 2109.6934 2107.0388 2103.4004 2099.1423 2083.3384 2066.4888 2043.8553 2025.4174 2019.9908 2009.2223 2009.5339 2012.1294 2020.9763 2028.5903 2016.4293 2006.0339 1993.6053 1981.6163 1967.0308 1960.8406 1957.9928 1963.8170 1976.2405 1972.0994 1964.0796 1958.8746 1960.9312 1975.4885 1988.6288 2004.4337
2448.4458 2494.4565 2543.9009 2558.6404 2538.6619 2525.2856 2497.9663 2460.5613 2423.5935 2397.1726 2369.3303 2357.8958 2349.3079 2340.0701 2333.5259 2324.5708 2314.3181 2303.1948 2303.8418 2301.5854 2281.8257 2266.1504 2251.9216 2228.9250 2205.2019 2190.2100 2176.6902 2158.8845 2146.6240 2138.6174 2126.1445 2113.3232 2106.0259 2108.8628 2119.8689 2137.1604 2141.8315 2133.3813 2121.2776 2111.4470 2104.2551 2099.8923 2106.9348 2116.2229 2123.9082 2129.0681 2134.1394 2134.5134 2122.6262 2105.0449 2076.3765 2053.4360 2034.6292 2028.9453 2018.9734 2016.9961 2020.4200 2025.0552 2028.9108 2014.7596 2005.4012 1993.9052 1981.8003 1972.6147 1967.4084 1964.5314 1968.4506 1981.1418 1992.7261 1979.5498 1966.7656 1969.8112 1990.4476 2009.8336 2013.5081
2448.7556 2494.1438 2544.7676 2559.5610 2539.7236 2522.2959 2487.3062 2448.5100 2416.5740 2387.7415 2364.4993 2357.0244 2348.8872 2340.6062 2336.9612 2336.9001 2336.0339 2335.4346 2329.7676 2313.2773 2298.0105 2279.1206 2257.1301 2228.9490 2210.4478 2198.0884 2186.3621 2169.4631 2154.0359 2142.8867 2132.0569 2124.3076 2110.9988 2110.9080 2115.4067 2124.9714 2133.6497 2139.6128 2132.6936 2118.7463 2107.2737 2103.1860 2106.3394 2117.3069 2129.1885 2140.6733 2152.8557 2160.3208 2145.0879 2124.2349 2090.3752 2062.3667 2043.7861 2032.0439 2026.2283 2026.6427 2030.0352 2034.7795 2026.8429 2015.2622 2006.2190 1995.6770 1984.6401 1977.6991 1973.9360 1972.8785 1974.5315 1983.8882 1996.6974 1992.3109 1973.7145 1974.8273 1984.5476 1996.3390 2008.5425
2451.2478 2494.6045 2545.5896 2565.9590 2546.8323 2521.2788 2481.0122 2442.8076 2413.4956 2387.7227 2364.5854 2358.3677 2353.6423 2349.6265 2349.0537 2350.8916 2356.4668 2359.0671 2337.3733 2316.7117 2298.2048 2276.6997 2258.2517 2235.0459 2217.6765 2206.8445 2193.9219 2178.4333 2162.3210 2147.0183 2143.2864 2142.9480 2138.6379 2119.6006 2117.2095 2120.9111 2130.6914 2139.8379 2145.8577 2135.3445 2122.2737 2109.0698 2107.3479 2112.9521 2130.1350 2150.5803 2169.8049 2175.6025 2162.7068 2142.5100 2108.7388 2078.6370 2053.5437 2037.8777 2033.7588 2036.5516 2039.6383 2039.5042 2027.3687 2017.7412 2009.0885 1999.5615 1991.4779 1986.1271 1981.3206 1981.2081 1984.3966 1990.7817 2002.1755 1997.4902 1982.8036 1982.5190 1985.3724 1993.1708 2003.2317
2463.4590 2498.4971 2549.0630 2568.9312 2551.9277 2510.1799 2473.9150 2428.0903 2403.1892 2392.7036 2375.0933 2369.1941 2367.1587 2364.8040 2365.8279 2369.5464 2363.2405 2343.4875 2325.8113 2309.7612 2294.7153 2276.2693 2257.6648 2240.8809 2232.6069 2214.9497 2201.3706 2183.4102 2170.7891 2158.8987 2154.6843 2151.1953 2148.5889 2132.1990 2122.7107 2122.2998 2130.4514 2141.0349 2150.4746 2155.6729 2141.4937 2120.8521 2111.6211 2112.0520 2120.5361 2141.6475 2175.6257 2200.2422 2179.8257 2160.4531 2127.6052 2093.8994 2069.3096 2051.4229 2042.1823 2043.6626 2049.4932 2051.0847 2035.6577 2023.0554 2015.2822 2006.5792 1998.0979 1994.5317 1989.4695 1989.6102 1994.4253 2002.3165 2008.7349 2015.1597 1999.6398 1992.6165 1992.9290 2004.4491 2011.0897
2482.2610 2517.5911 2561.4102 2570.3850 2542.4319 2500.6123 2466.4812 2426.8411 2400.8965 2390.9170 2382.1279 2383.7178 2389.4319 2387.0166 2390.5229 2382.5366 2354.1438 2339.3167 2323.3733 2308.8394 2293.7280 2278.8242 2267.5205 2250.6902 2237.0330 2224.1531 2207.6223 2189.8689 2176.2085 2166.7085 2160.3418 2154.3894 2146.8928 2133.7549 2126.6223 2125.2839 2130.9832 2140.9973 2152.6946 2163.3872 2160.7236 2139.0833 2117.9155 2115.2881 2119.0735 2130.9204 2166.1533 2198.2639 2200.4487 2175.3647 2144.1987 2113.0449 2087.1111 2068.9673 2054.7422 2052.2957 2057.0229 2065.0891 2050.9602 2029.0688 2020.6895 2013.6919 2007.2108 2005.6332 1995.8319 1995.6390 2001.3761 2011.7142 2017.7247 2023.8097 2011.6495 2004.9122 2005.0846 2012.1373 2024.1770
2503.2510 2531.8740 2565.1196 2567.4631 2530.7244 2485.2607 2453.7908 2420.2964 2401.8687 2393.8835 2394.6670 2402.4919 2412.0879 2418.2551 2414.3130 2392.0820 2367.5103 2348.4128 2328.4026 2313.1318 2300.5659 2285.7021 2276.1572 2258.8970 2239.2759 2222.6958 2211.9661 2198.3037 2182.3743 2170.3948 2162.0815 2154.4331 2144.7761 2134.0295 2128.1904 2127.8730 2132.5581 2141.2749 2152.4639 2163.6082 2172.1152 2158.0950 2130.4890 2120.0491 2119.9517 2127.6458 2154.6482 2191.3838 2216.7935 2194.0574 2160.3450 2126.8267 2101.3306 2082.8245 2070.8601 2062.3315 2066.0786 2073.5327 2072.0186 2043.3948 2027.8425 2021.9237 2021.5020 2020.5397 2008.0247 2002.5573 2008.2397 2020.3604 2025.1853 2034.9017 2028.5133 2013.0645 2013.2134 2018.6462 2030.4594
2532.7278 2562.6316 2580.7065 2563.7644 2520.3452 2485.8284 2453.4587 2419.7993 2407.0459 2404.1091 2412.6694 2420.5024 2433.4700 2439.1631 2436.2061 2420.2871 2394.4561 2366.1926 2343.8596 2325.8020 2312.4553 2300.0942 2289.4187 2270.4856 2248.2043 2228.4380 2211.2581 2197.8323 2185.5532 2173.3188 2163.4053 2153.3416 2144.7595 2136.4307 2130.9648 2131.4023 2133.6025 2144.1255 2156.2258 2168.0415 2181.5322 2180.0073 2154.4121 2132.2188 2127.8125 2128.8413 2151.3235 2183.9021 2214.6997 2204.0938 2171.5171 2139.8071 2113.3457 2094.3518 2083.0322 2076.5862 2077.9551 2082.1204 2075.4602 2055.6787 2038.8033 2033.4921 2033.6381 2034.2849 2024.6439 2011.7990 2013.2482 2032.2859 2045.3549 2052.1909 2050.8875 2026.9121 2027.3622 2030.1842 2038.9941
2556.0466 2596.5613 2592.1514 2558.9607 2511.6333 2484.9182 2462.0374 2438.8235 2420.9036 2421.6746 2429.4521 2436.2913 2449.9753 2454.7004 2458.4714 2450.0308 2423.7261 2395.4163 2366.0916 2344.0918 2326.1768 2312.6777 2304.2588 2282.0793 2257.5359 2237.2112 2215.3091 2197.0371 2184.1785 2171.9922 2162.4673 2153.1042 2144.8130 2139.4229 2133.6272 2133.7246 2141.0012 2154.7007 2167.1829 2184.1343 2200.2051 2204.9465 2175.9978 2151.1387 2146.4822 2142.8379 2154.1140 2182.7708 2211.9087 2213.6836 2177.3660 2150.6243 2124.9783 2104.5906 2095.4712 2092.0566 2092.4587 2089.7844 2083.5786 2064.7131 2048.0557 2044.2261 2045.9779 2049.8105 2044.6018 2026.0712 2026.8248 2036.7600 2054.0986 2061.8960 2063.8948 2048.6167 2046.1248 2045.6881 2052.0393
2577.5168 2613.8550 2585.9048 2550.2346 2531.3872 2505.0249 2476.7668 2452.3223 2439.7505 2442.8250 2441.8645 2453.5715 2463.1345 2467.4016 2472.8604 2475.6753 2443.3840 2416.7041 2388.9773 2362.0710 2340.9265 2326.2258 2311.9207 2293.7256 2270.3320 2247.2749 2219.6536 2198.2026 2185.3394 2172.6243 2161.4219 2153.2590 2145.8774 2141.7024 2137.5181 2138.4812 2150.5676 2167.3318 2183.5671 2204.1284 2224.1863 2233.4226 2197.7126 2171.4739 2162.9824 2157.0247 2160.8604 2180.2234 2208.1992 2224.2673 2188.6550 2164.3130 2144.7141 2118.7224 2108.1626 2105.5159 2104.7305 2097.8779 2090.4680 2076.6226 2063.9810 2056.7058 2056.8176 2064.7864 2066.8508 2041.6576 2040.9379 2047.4741 2059.4419 2067.0786 2071.6404 2069.7498 2060.2588 2059.2231 2064.9338
2587.6670 2619.1221 2563.4780 2534.2781 2532.5483 2523.5251 2501.2209 2465.3159 2464.2979 2450.5862 2451.7070 2467.3979 2477.6777 2479.6172 2485.8779 2491.8877 2467.6802 2439.5486 2413.3962 2386.5913 2357.6064 2337.5503 2319.9863 2303.6184 2281.5781 2254.0801 2226.9346 2205.0083 2189.9395 2174.4653 2161.4646 2154.7944 2149.8279 2143.9429 2142.9917 2145.4221 2158.8474 2175.0781 2196.7898 2220.3281 2240.1990 2250.5791 2211.6409 2190.5393 2179.2339 2170.1838 2169.4158 2180.5337 2207.8887 2233.9692 2197.4985 2177.5930 2157.4534 2136.3931 2122.5913 2118.9026 2119.5259 2110.4834 2096.0312 2084.2925 2074.3916 2069.9844 2070.1453 2078.1860 2084.4468 2057.3044 2052.8308 2057.2517 2070.6211 2075.8259 2077.7515 2078.5122 2075.4805 2074.4185 2078.6094
2607.0430 2619.0845 2561.6172 2534.0044 2523.4695 2516.2327 2507.1199 2503.3684 2470.3342 2468.0037 2482.3423 2493.5842 2494.8635 2493.7800 2500.5039 2506.0676 2487.6946 2464.4185 2433.6599 2410.1072 2379.8066 2352.6560 2330.1587 2314.0413 2290.9131 2261.9978 2236.2288 2211.5679 2193.3958 2176.9666 2164.4961 2156.9692 2151.4663 2147.6592 2148.1104 2150.3608 2161.0669 2172.1621 2191.9189 2214.0842 2235.7261 2256.6145 2236.4341 2210.2749 2194.4976 2186.4287 2183.8054 2188.4131 2210.3818 2238.5977 2211.9854 2192.3313 2172.0515 2154.9385 2137.0503 2134.4712 2137.9680 2127.9111 2108.2146 2095.9023 2088.6704 2080.3296 2080.1899 2087.9915 2090.5781 2065.2927 2065.6809 2071.7390 2076.4490 2081.1755 2082.7534 2084.6990 2087.3215 2087.7141 2092.3726
2632.3750 2620.5789 2563.9595 2538.7273 2522.9712 2518.6931 2519.5662 2515.4019 2497.2261 2499.5366 2504.6187 2516.1082 2511.5479 2511.0244 2512.3745 2521.8887 2502.5139 2478.9133 2446.6182 2422.2520 2396.1665 2365.9058 2345.2605 2324.3987 2300.6431 2273.1973 2244.5818 2217.8276 2198.4070 2180.8533 2167.8716 2158.5598 2154.2029 2150.2568 2150.5510 2154.1968 2161.0625 2172.0544 2190.9250 2212.5657 2234.1023 2255.9749 2268.0723 2235.2112 2215.5500 2205.0586 2200.7056 2200.0288 2212.9631 2244.7844 2227.9868 2210.7427 2192.1780 2173.9275 2158.4978 2153.8086 2154.8279 2145.4636 2122.6440 2109.6716 2102.4075 2094.3306 2094.2910 2098.6521 2090.0010 2075.8076 2076.8333 2083.8203 2083.7556 2086.2017 2090.4111 2096.8081 2100.9717 2101.2822 2102.4358
2627.5991 2627.6292 2588.3210 2554.6284 2546.2229 2525.9333 2531.9402 2551.0063 2543.1960 2533.4243 2538.4133 2537.0583 2529.9561 2525.3730 2526.4248 2533.8279 2519.2219 2490.2830 2459.4741 2430.8103 2406.0930 2383.2209 2359.9229 2334.6929 2307.3835 2277.9602 2250.9641 2224.3318 2205.5081 2185.8679 2171.8074 2162.1550 2155.5652 2152.3765 2152.4163 2155.6511 2162.7803 2172.9824 2190.9504 2213.0684 2233.9634 2256.4827 2276.2744 2263.1753 2235.4426 2224.9153 2220.6350 2217.3098 2221.0598 2244.8655 2245.1873 2228.7737 2213.1812 2194.6609 2179.2881 2176.3206 2176.6016 2161.5100 2140.7834 2124.9543 2119.7007 2108.5415 2108.5503 2101.0203 2090.8274 2085.7690 2088.2617 2091.3723 2091.6260 2095.4011 2103.1924 2109.9817 2112.8945 2111.4077 2111.0671
2591.4800 2598.6624 2609.3381 2602.1814 2587.0388 2571.1899 2579.2744 2587.8972 2591.8328 2577.9919 2568.6985 2548.8601 2513.6538 2492.7112 2492.6265 2506.8635 2525.9846 2495.0981 2465.3799 2435.5688 2409.8962 2391.6648 2378.1653 2342.8850 2316.1033 2286.6875 2258.0508 2231.1987 2210.9043 2191.4846 2176.2300 2165.6765 2157.5581 2154.7617 2154.3333 2156.1350 2162.8047 2173.0491 2189.7434 2212.0269 2234.7725 2258.6387 2289.6475 2283.6392 2258.3604 2239.4346 2231.9797 2231.3467 2231.4282 2244.1641 2258.5298 2246.4285 2231.5100 2213.4119 2200.7991 2197.3369 2202.2556 2184.8372 2161.7737 2141.6377 2133.5205 2126.6841 2120.0298 2105.1086 2096.1724 2093.5806 2097.3167 2097.6719 2097.9382 2106.6462 2114.4485 2117.8831 2120.1890 2118.4189 2117.9507
2544.6265 2561.0151 2586.5151 2613.6821 2610.9111 2588.7664 2588.3589 2582.6562 2584.0071 2605.9116 2559.4290 2516.6748 2474.5352 2451.1831 2447.4263 2462.1121 2480.1909 2485.8938 2471.2703 2440.0759 2411.2288 2393.0481 2375.6956 2346.5793 2321.2871 2291.4121 2262.4629 2238.2625 2217.2571 2197.2522 2180.0339 2169.9009 2160.8765 2157.5410 2156.2175 2157.0957 2163.6987 2173.8875 2189.2053 2210.3411 2233.6079 2256.5427 2283.0974 2304.4795 2278.3352 2257.0098 2244.1125 2242.4280 2242.1865 2246.1289 2262.5303 2265.4910 2251.5183 2233.3804 2217.6809 2215.2336 2222.1111 2203.5532 2183.0369 2163.0281 2149.1621 2135.0955 2119.8538 2108.6768 2103.3428 2102.6912 2105.3147 2106.9116 2110.1831 2116.2480 2122.5896 2125.1792 2127.6301 2123.8396 2122.4497
2495.7661 2514.2092 2549.9690 2587.4971 2608.3489 2569.9290 2551.1177 2543.6064 2548.0820 2583.5288 2543.5210 2491.8608 2442.9214 2406.4065 2402.5493 2413.3035 2427.3057 2442.2219 2473.2681 2438.3455 2406.9988 2389.5308 2376.3455 2349.1218 2325.3750 2296.2969 2267.2026 2243.4744 2219.0398 2203.7444 2184.6108 2172.2573 2165.3689 2160.6890 2158.3164 2159.6987 2164.6970 2173.2354 2187.0386 2205.9119 2229.1587 2252.8953 2276.5979 2303.3843 2306.3757 2273.9138 2259.3008 2254.3438 2252.6982 2252.8103 2267.2908 2281.3904 2274.3730 2260.6538 2248.1152 2240.9519 2241.0493 2226.2600 2204.1328 2180.3518 2163.7778 2143.8408 2125.0325 2113.6440 2110.2729 2111.5752 2112.9253 2113.6614 2118.0945 2124.0183 2130.2651 2133.8979 2136.3689 2134.1682 2132.4155
2434.0085 2455.5732 2503.3904 2543.7275 2581.4216 2550.2581 2509.4993 2493.0229 2501.5483 2529.5669 2531.0618 2476.5754 2418.2227 2375.3076 2351.3174 2358.5803 2368.1511 2398.3027 2434.9111 2431.5894 2392.0730 2366.3518 2363.3083 2352.9138 2330.1018 2307.9517 2276.3479 2248.9536 2221.5161 2209.5713 2192.2734 2174.7957 2167.4182 2163.3015 2161.0942 2161.8247 2166.0266 2172.7329 2185.4182 2202.8845 2224.1475 2247.2957 2270.6907 2297.9404 2323.5256 2302.2690 2280.3889 2274.6963 2266.2844 2265.3918 2269.8938 2285.0232 2297.4685 2290.1748 2278.4189 2270.5312 2266.3323 2250.2673 2227.2800 2195.7329 2168.1436 2150.1892 2130.1660 2120.3640 2118.1172 2118.3682 2119.1309 2119.8867 2123.4666 2129.4568 2136.8293 2144.3254 2145.9817 2144.2693 2144.2017
2381.6360 2398.9453 2451.9148 2498.9336 2505.4558 2495.0933 2465.7075 2437.1392 2444.8933 2469.0571 2517.9456 2461.9790 2400.7324 2350.4824 2310.2993 2303.0220 2317.3831 2345.8328 2381.8853 2414.3372 2369.4238 2330.5842 2319.8755 2323.8550 2331.0547 2309.9607 2281.8765 2252.1414 2217.5457 2194.1345 2194.4412 2183.2866 2170.3508 2166.0452 2164.5110 2164.2859 2165.7468 2171.7034 2182.5190 2196.8513 2216.5200 2238.6340 2262.4683 2286.1260 2312.2229 2324.0884 2309.6167 2306.5142 2289.5132 2276.9602 2278.0703 2286.8530 2302.5728 2312.2656 2302.2710 2293.3579 2281.8625 2262.9194 2239.2896 2207.4739 2172.3284 2153.5959 2136.0059 2127.6562 2126.0806 2126.1692 2126.0220 2125.7319 2128.0088 2134.3457 2141.6128 2149.0046 2147.6965 2142.8687 2142.3416
2339.9990 2355.4089 2402.2483 2436.7183 2436.4700 2422.1689 2393.5854 2376.6519 2389.9817 2420.2893 2457.7029 2447.5134 2389.7212 2330.5610 2283.3730 2257.9580 2268.7700 2297.6528 2335.8408 2363.7378 2343.5686 2289.4058 2261.7952 2262.4524 2271.7300 2283.6567 2269.6692 2254.2534 2199.9839 2168.2600 2162.8276 2167.5757 2174.3779 2169.7852 2166.4849 2163.7466 2163.6321 2168.3979 2176.3948 2189.7632 2207.8428 2227.2415 2245.9434 2268.4968 2289.6013 2304.2053 2318.9727 2319.7937 2310.1641 2292.0984 2287.4814 2290.4495 2304.8123 2324.0305 2321.6580 2309.6633 2293.9163 2270.8071 2245.6743 2213.7659 2177.8875 2158.4539 2145.2661 2142.3105 2137.2751 2136.4915 2132.5969 2130.4187 2131.3022 2136.0232 2143.3037 2151.1533 2144.3679 2132.5493 2132.7778
2301.2607 2323.1631 2368.9207 2371.3391 2383.1619 2362.0723 2338.8025 2321.6501 2336.5215 2369.1128 2396.1387 2395.2087 2348.3398 2297.2659 2248.9326 2212.8301 2221.3186 2249.6892 2281.9866 2287.0959 2278.3484 2268.0979 2200.6235 2199.0046 2201.0305 2216.6877 2217.4248 2206.1848 2171.7251 2134.1672 2129.8928 2134.7673 2143.6533 2148.4731 2158.4995 2157.0903 2158.9517 2158.7437 2164.4241 2177.1672 2191.2119 2209.8022 2226.8550 2246.2542 2266.4626 2279.4924 2293.2573 2312.4629 2325.9629 2306.2029 2296.9355 2297.5259 2303.9517 2319.4407 2335.0803 2321.7373 2297.6816 2273.9985 2251.3003 2218.4304 2187.5618 2166.5151 2158.0540 2149.7070 2142.7336 2134.3533 2132.0979 2129.7842 2130.9827 2136.4412 2143.1990 2149.9417 2135.0342 2117.4846 2116.8184
2258.0693 2291.1709 2314.1760 2309.9128 2321.2307 2310.7485 2286.1018 2267.2336 2292.2866 2316.6504 2332.2048 2341.5349 2300.8352 2261.7710 2209.9478 2172.8228 2175.8894 2203.6145 2222.3821 2219.2842 2205.5002 2211.9050 2158.1953 2136.1399 2134.6482 2145.7373 2147.2073 2137.2463 2141.3672 2092.8574 2081.1777 2082.2961 2086.5713 2098.5210 2123.1062 2124.1514 2129.4265 2131.9897 2149.2268 2161.6113 2172.0745 2184.2715 2198.0605 2220.2234 2238.2976 2260.4021 2277.9473 2300.3955 2322.1807 2315.7209 2303.4636 2299.9526 2301.6685 2312.9067 2326.4253 2328.7634 2306.4380 2284.4097 2256.5884 2223.9163 2198.1052 2176.6819 2164.8452 2151.0227 2138.4705 2128.9060 2123.7932 2123.8564 2129.1802 2135.0884 2136.0762 2136.0083 2116.9043 2098.1487 2095.6577
2219.1311 2245.2783 2259.8430 2258.5789 2264.3997 2257.4785 2236.8799 2220.3203 2245.2781 2257.2085 2264.9724 2283.1736 2250.4956 2217.8904 2181.8657 2139.1663 2134.3323 2156.5771 2156.2935 2152.6018 2138.6887 2125.7043 2101.4985 2068.0298 2072.3108 2083.8435 2084.2278 2065.6797 2084.2832 2049.3525 2036.3441 2037.3362 2035.3719 2053.7927 2072.2285 2075.8982 2085.5940 2103.4446 2125.3567 2136.1587 2142.1775 2155.2146 2165.9246 2182.3364 2209.6333 2231.9463 2252.4299 2276.2056 2307.6377 2318.9509 2298.9189 2291.7500 2295.7778 2306.0947 2318.3250 2332.8906 2318.9089 2295.7271 2268.7791 2238.7905 2214.1699 2190.5095 2168.9495 2150.8982 2137.2026 2121.8105 2118.2307 2119.9951 2126.8560 2124.9583 2124.9138 2119.6733 2094.7244 2073.4932 2070.1829
2190.9277 2200.8262 2212.8958 2214.4819 2208.2310 2201.1816 2191.8696 2180.1045 2194.1143 2193.9546 2196.0750 2209.9304 2187.9128 2167.5063 2140.7451 2102.3914 2091.3945 2103.4729 2093.9116 2084.9919 2072.4077 2066.6206 2047.7565 2019.0670 2010.6687 2018.3986 2024.6372 2014.3278 2019.2324 2001.8810 1983.5106 1987.5103 1984.2920 2002.2664 2020.3434 2023.4240 2030.6421 2053.4512 2071.2959 2074.0715 2088.0540 2107.6108 2120.1453 2147.9446 2177.6130 2200.0791 2221.8057 2250.7026 2288.3132 2311.5320 2289.4265 2283.5964 2287.7976 2293.9968 2300.6606 2313.5105 2326.3748 2309.0854 2283.2292 2248.3499 2232.5984 2205.5247 2179.4587 2156.1589 2134.7734 2110.4922 2108.0654 2113.2146 2117.1599 2107.6667 2107.7043 2095.4578 2068.4045 2047.7010 2045.3046
2163.1843 2163.9487 2170.3010 2168.6985 2159.2329 2150.4385 2146.5771 2134.3157 2145.0054 2139.1985 2145.9509 2145.9504 2129.7424 2115.7441 2099.2278 2078.1323 2038.7482 2038.2319 2035.2961 2042.1981 2012.9623 2001.3761 1986.1202 1978.0981 1962.7246 1964.2715 1961.1835 1957.9102 1957.8030 1950.5449 1940.1783 1948.6099 1950.1461 1950.3284 1966.7820 1969.2306 1975.1857 2005.3340 2023.4509 2026.7186 2038.0153 2063.3711 2077.8201 2117.3643 2142.2263 2156.4856 2179.7878 2221.8777 2256.5220 2286.0906 2273.6121 2267.6428 2268.6833 2272.0586 2277.7786 2291.7905 2306.6555 2322.3181 2300.0742 2266.1528 2248.2664 2221.3965 2192.0159 2161.9812 2134.4648 2106.3848 2097.9011 2099.2717 2096.0420 2090.1621 2090.2085 2075.6704 2049.1704 2026.1578 2023.0902
2148.1621 2146.5149 2138.2427 2134.8064 2128.7290 2113.0635 2113.0774 2094.9133 2094.0066 2083.7654 2093.6697 2092.0762 2084.5020 2070.2271 2043.3280 2030.2780 2005.5177 1997.4949 1987.1526 1985.4141 1971.4071 1957.6438 1942.9626 1937.0670 1936.1271 1927.5215 1928.0333 1926.1462 1922.8562 1922.0162 1922.5195 1925.9304 1927.4946 1925.3124 1926.2898 1929.3925 1938.9526 1960.9247 1979.6089 1986.6749 1999.3024 2020.3459 2044.4915 2083.6450 2101.9077 2118.7729 2151.8613 2194.3237 2226.6362 2251.0894 2258.1929 2249.0232 2246.8630 2250.9407 2252.1787 2271.4717 2289.6833 2304.8118 2310.3103 2276.9368 2260.4390 2238.6919 2204.9692 2169.6082 2134.2200 2104.7256 2087.7637 2085.0120 2080.6824 2075.1238 2074.5356 2056.0229 2031.3240 2012.2972 2006.7740
