2153.1951 2144.4478 2137.7603 2129.0137 2121.2290 2118.1067 2117.8040 2117.8040 2117.8040 2117.8040 2117.8040 2117.8040 2117.8040 2117.8040 2117.8040 2117.8040 2117.8040 2117.8040 2117.8040 2117.8040 2117.8040 2117.8040 2117.8040 2117.8040 2117.8040 2117.8040 2117.8040 2117.8040 2117.8040 2117.8040 2117.8040 2117.8040 2117.8040 2117.8040 2117.8040 2117.8040 2117.8040 2117.8040 2117.8040 2117.8040 2117.8040 2117.8040 2117.8040 2117.8040 2117.8040 2120.6304 2133.5830 2145.6182 2157.5574 2170.4224 2176.8828 2185.3118 2195.3801 2205.9670 2211.1802 2217.2197 2232.9492 2230.9329 2230.6125 2232.5488 2238.0598 2242.3101 2240.3721 2230.9802 2223.6890 2214.8086 2205.9258 2197.3948 2188.0947 2181.4570 2174.2817 2168.2629 2163.3474 2158.2419 2150.5332 2142.7939 2135.4917 2130.1733 2124.1143 2117.3997 2108.5046 2102.2139 2097.7896 2092.9441 2084.6917 2074.1562 2067.5063 2062.5750 2059.2478 2062.5732 2066.7144 2071.6169 2076.0669 2078.3289 2078.1628 2077.6072 2077.6384 2078.5725 2080.5188 2083.2207 2085.8003 2088.1060 2089.7036 2091.2656 2088.2373 2085.5950 2082.0103 2078.4204 2075.3562 2073.9846 2071.6648 2068.9961 2065.7373 2062.6487 2057.7290 2052.1221 2048.9268 2048.4871 2049.2319 2050.1284 2052.2380 2057.4775 2061.4119 2064.9519 2068.3892 2071.1060 2073.1941 2076.0486 2074.5659 2073.8379 2073.0176 2073.3274 2077.1345 2084.6165 2089.5439 2094.7732 2103.2996 2106.1189 2096.9871 2087.8489 2078.1025 2068.8440 2059.7573 2052.8682 2044.8584 2037.7064 2035.9006 2034.0269 2031.2963
2143.2720 2134.9526 2126.6111 2118.4001 2117.8040 2117.8040 2117.8040 2117.8040 2117.8040 2117.8040 2117.8040 2117.8040 2117.8040 2117.8040 2117.8040 2117.8040 2117.8040 2117.8040 2117.8040 2117.8040 2117.8040 2117.8040 2117.8040 2117.8040 2117.8040 2117.8040 2117.8040 2117.8040 2117.8040 2117.8040 2117.8040 2117.8040 2117.8040 2117.8040 2117.8040 2117.8040 2117.8040 2117.8040 2117.8040 2117.8040 2117.8040 2117.8040 2117.8040 2117.8069 2125.2119 2137.4565 2150.3113 2160.4121 2173.8125 2183.9490 2192.7087 2205.2136 2215.1663 2222.0247 2224.9441 2235.4346 2234.1704 2233.8076 2237.1611 2243.0959 2244.5400 2239.7954 2231.8367 2223.0957 2214.7041 2206.5947 2197.0764 2189.9893 2181.5620 2174.2610 2166.9900 2161.1653 2157.2903 2153.5608 2149.2068 2143.0381 2135.5974 2128.3313 2120.1431 2112.5769 2102.7378 2092.7405 2084.8567 2079.6348 2073.1707 2066.3086 2061.3154 2056.3206 2052.9124 2054.0540 2060.3311 2066.6125 2071.4268 2073.6697 2072.7939 2071.9365 2073.1968 2075.3604 2076.9700 2080.6177 2084.5171 2086.6348 2088.3496 2090.3640 2088.1340 2085.5317 2080.5627 2075.3333 2073.0476 2071.6042 2070.1152 2067.7009 2065.0725 2062.8442 2057.6345 2052.3489 2046.7795 2045.7699 2045.7686 2048.5327 2051.4019 2054.6450 2058.9736 2062.6931 2066.5068 2070.5356 2072.9709 2076.9419 2080.1433 2078.1768 2077.0029 2076.3293 2077.0999 2080.7156 2084.9585 2092.6357 2101.2009 2105.6882 2102.4290 2096.1050 2081.6997 2071.1172 2064.1702 2058.6699 2054.2466 2050.0576 2042.0201 2036.4875 2033.5957
2132.7195 2120.3784 2117.9353 2117.8040 2117.8040 2117.8040 2117.8040 2117.8040 2117.8040 2117.8040 2117.8040 2117.8040 2117.8040 2117.8040 2117.8040 2117.8040 2117.8040 2117.8040 2117.8040 2117.8040 2117.8040 2117.8040 2117.8040 2117.8040 2117.8040 2117.8040 2117.8040 2117.8040 2117.8040 2117.8040 2117.8040 2117.8040 2117.8040 2117.8040 2117.8040 2117.8040 2117.8040 2117.8040 2117.8040 2117.8040 2117.8040 2117.8040 2121.2222 2130.7393 2140.6587 2152.0610 2165.5334 2179.7312 2192.0022 2202.6650 2210.1284 2221.5747 2233.6101 2234.9387 2238.1772 2241.7842 2242.4529 2246.5862 2251.7603 2244.9927 2237.9739 2229.8789 2222.1213 2213.4626 2206.1787 2197.9448 2189.1987 2180.9966 2173.3572 2165.4036 2159.9219 2154.7209 2149.8391 2145.2085 2141.2336 2136.9636 2133.3948 2126.4924 2119.1499 2111.9622 2102.4307 2090.2576 2080.2993 2072.2300 2065.7666 2059.8101 2055.9980 2052.4697 2048.2131 2048.8240 2054.9727 2060.6418 2064.0251 2066.1174 2066.2827 2066.3826 2068.2449 2070.9856 2074.4087 2078.7373 2082.6160 2084.7393 2086.6704 2088.3645 2088.5391 2085.6299 2080.1699 2073.8855 2071.6765 2070.1458 2069.0715 2067.0879 2064.9863 2062.4939 2057.2058 2050.8804 2046.0278 2045.7491 2045.7679 2046.5175 2048.1602 2051.6118 2057.0574 2061.0278 2065.3447 2070.6416 2074.2061 2078.4419 2084.1372 2080.5032 2075.2043 2073.2014 2073.9097 2076.1616 2080.9590 2087.0190 2096.2617 2102.5874 2100.8323 2091.6240 2081.5735 2074.7122 2069.7861 2063.6614 2059.0425 2052.7366 2046.0336 2037.9509 2033.7543
2120.0337 2117.8113 2117.8040 2117.8040 2117.8040 2117.8040 2117.8040 2117.8040 2117.8040 2117.8040 2117.8040 2117.8040 2117.8040 2117.8040 2117.8040 2117.8040 2117.8040 2117.8040 2117.8040 2117.8040 2117.8040 2117.8040 2117.8040 2117.8040 2117.8040 2117.8040 2117.8040 2117.8040 2117.8040 2117.8040 2117.8040 2117.8040 2117.8040 2117.8040 2117.8040 2117.8040 2117.8040 2117.8040 2117.8040 2117.8040 2118.9272 2129.4634 2135.7153 2147.2888 2157.1523 2171.7095 2184.9138 2199.4792 2207.7688 2219.9551 2234.4434 2246.4502 2241.5559 2241.7488 2244.6748 2248.9897 2255.0635 2250.0701 2242.3293 2235.5598 2227.3623 2220.0457 2213.4438 2205.3640 2196.0244 2187.5481 2179.4443 2172.9949 2165.0066 2157.1604 2151.9307 2147.3154 2141.7766 2138.4568 2133.5911 2128.5393 2122.9583 2118.6909 2113.1489 2108.4521 2101.8413 2090.2068 2079.8826 2071.5938 2063.4648 2058.0146 2051.8838 2049.6104 2043.9427 2043.3049 2048.8843 2054.6719 2058.0212 2058.9761 2058.7617 2059.4502 2061.2673 2067.3291 2074.1155 2077.3684 2079.7642 2082.0046 2084.5750 2086.8435 2087.8896 2086.2222 2079.4902 2073.6833 2071.2915 2069.3296 2067.7703 2066.5994 2064.9919 2062.5271 2057.1575 2049.1851 2045.9913 2045.7090 2045.5616 2045.5217 2045.6840 2048.4023 2052.9197 2057.7849 2063.1030 2070.9272 2075.7842 2079.8621 2084.1189 2081.2612 2075.2300 2070.0696 2069.8333 2070.9495 2074.7756 2079.2258 2087.6670 2099.1704 2094.0288 2082.5994 2076.2451 2071.4624 2066.1790 2060.9377 2056.6143 2051.1023 2044.4230 2036.3856 2032.8406
2117.8040 2117.8040 2117.8040 2117.8040 2117.8040 2117.8040 2117.8040 2117.8040 2117.8040 2117.8040 2117.8040 2117.8040 2117.8040 2117.8040 2117.8040 2117.8040 2117.8040 2117.8040 2117.8040 2117.8040 2117.8040 2117.8040 2117.8040 2117.8040 2117.8040 2117.8040 2117.8040 2117.8040 2117.8040 2117.8040 2117.8040 2117.8040 2117.8040 2117.8040 2117.8040 2117.8040 2117.8040 2117.8040 2117.8040 2123.5139 2132.8286 2144.4287 2157.2739 2168.1653 2178.9888 2187.4622 2200.9758 2214.4609 2229.4780 2246.6587 2258.3174 2248.3081 2245.9460 2247.8533 2254.4006 2251.2756 2245.6211 2239.0144 2232.2297 2226.8135 2218.3005 2210.6807 2202.4561 2193.7363 2185.0330 2179.1768 2171.6084 2162.9961 2155.5330 2149.1619 2143.9141 2139.7515 2134.6257 2129.0779 2123.2307 2118.9011 2116.2202 2111.9075 2107.3674 2102.2314 2098.1670 2092.1084 2080.4060 2071.0759 2063.3101 2054.6956 2048.0032 2044.7069 2040.8781 2039.3060 2044.2178 2049.0991 2051.4434 2051.9099 2053.1326 2054.1189 2057.0212 2063.9292 2072.2280 2075.3999 2077.4165 2079.1426 2081.3818 2083.7136 2085.9287 2084.9001 2078.3545 2072.9539 2070.7058 2067.0930 2066.2917 2065.5981 2064.7141 2062.9946 2057.7625 2049.1692 2045.9143 2045.7090 2045.5339 2044.7413 2044.6847 2044.8230 2048.4216 2054.1863 2060.2896 2067.1484 2072.8875 2078.2065 2085.8074 2084.7090 2075.2563 2065.7869 2061.8752 2062.7041 2066.9302 2070.4744 2077.3264 2085.0945 2081.9114 2077.0532 2071.3591 2066.1519 2061.2310 2057.0486 2052.5874 2048.6157 2041.2736 2034.8583 2032.0006
2117.8040 2117.8040 2117.8040 2117.8040 2117.8040 2117.8040 2117.8040 2117.8040 2117.8040 2117.8040 2117.8040 2117.8040 2117.8040 2117.8040 2117.8040 2117.8040 2117.8040 2117.8040 2117.8040 2117.8040 2117.8040 2117.8040 2117.8040 2117.8040 2117.8040 2117.8040 2117.8040 2117.8040 2117.8040 2117.8040 2117.8040 2117.8040 2117.8040 2117.8040 2117.8040 2117.8040 2117.8040 2118.8567 2126.0361 2138.1775 2150.8506 2163.6714 2174.4700 2183.7732 2194.5232 2205.2642 2220.0674 2236.4531 2251.8801 2267.5903 2265.1389 2261.5496 2250.7122 2242.5442 2237.8079 2236.5315 2233.3638 2229.2676 2222.2712 2214.9753 2207.0625 2199.5107 2193.1008 2186.0781 2177.9282 2170.3091 2161.4888 2152.8721 2147.3140 2140.3687 2134.1899 2128.2717 2123.4360 2119.8245 2116.6243 2112.9001 2108.2410 2102.9180 2098.0886 2095.9692 2093.4133 2089.4744 2084.1736 2072.8481 2062.7791 2054.0398 2047.1798 2041.6381 2037.0685 2034.8119 2036.9717 2042.0977 2045.5887 2045.9214 2046.1205 2047.0154 2049.5669 2060.8574 2066.9614 2071.5933 2073.9583 2075.4119 2076.8875 2079.9377 2082.0305 2081.3694 2076.6606 2071.8601 2067.2927 2064.2771 2063.9492 2063.5984 2063.3325 2063.2581 2060.5688 2052.9553 2046.0370 2045.7185 2045.6879 2045.0687 2044.6847 2044.6399 2044.6758 2049.1592 2055.4785 2062.4478 2068.8484 2073.1562 2081.5818 2082.2268 2070.8298 2061.2180 2057.0962 2056.6868 2057.2046 2059.4744 2063.2139 2072.1443 2071.3999 2068.5791 2064.7695 2060.6909 2057.4163 2053.1973 2048.8623 2044.8777 2039.1666 2034.2061 2031.2417
2117.8040 2117.8040 2117.8040 2117.8040 2117.8040 2117.8040 2117.8040 2117.8040 2117.8040 2117.8040 2117.8040 2117.8040 2117.8040 2117.8040 2117.8040 2117.8040 2117.8040 2117.8040 2117.8040 2117.8040 2117.8040 2117.8040 2117.8040 2117.8040 2117.8040 2117.8040 2117.8040 2117.8040 2117.8040 2117.8040 2117.8040 2117.8318 2117.8040 2117.8040 2117.8110 2119.1062 2124.8271 2130.7998 2142.8962 2156.7319 2166.7256 2179.8071 2190.9243 2201.4365 2212.1228 2221.1531 2233.8994 2247.7930 2266.3799 2270.6401 2259.5378 2245.4409 2233.8713 2223.1663 2219.8750 2224.1697 2220.2278 2214.7070 2208.7769 2202.6370 2198.1611 2191.1587 2184.0210 2175.7830 2167.9978 2161.4438 2153.6736 2145.4617 2137.0532 2128.3074 2120.7356 2117.8323 2114.0730 2110.8857 2108.4055 2104.0200 2099.2212 2095.4189 2091.4570 2088.5608 2086.3376 2084.4514 2080.7598 2075.0759 2063.4717 2054.1257 2046.5337 2039.7510 2035.2712 2031.5139 2031.2111 2035.5822 2037.5624 2037.9490 2038.8794 2041.4574 2046.1774 2053.8142 2061.7646 2066.1387 2070.0725 2072.0879 2073.1694 2074.8064 2077.3162 2077.8472 2074.6411 2068.9863 2063.4241 2060.9104 2061.0435 2061.9614 2061.9604 2062.0378 2060.5361 2057.2922 2052.2922 2048.7273 2047.4408 2047.4912 2045.8827 2043.8381 2043.4954 2046.1217 2050.7483 2057.3257 2062.7695 2067.0654 2071.5276 2077.4617 2067.3958 2055.4172 2049.6719 2049.2141 2050.4263 2050.7888 2052.2659 2054.5037 2058.1138 2060.4453 2059.1897 2056.4817 2052.7947 2048.7173 2045.2426 2042.6219 2038.0447 2033.8440 2030.6913
2117.8040 2117.8040 2117.8040 2117.8040 2117.8040 2117.8040 2117.8040 2117.8040 2117.8040 2117.8040 2117.8040 2117.8040 2117.8040 2117.8040 2117.8040 2117.8040 2117.8040 2117.8040 2117.8040 2117.8040 2117.8040 2117.8040 2117.8040 2117.8040 2117.8040 2117.8040 2117.8040 2117.8040 2117.8040 2117.8040 2122.6936 2121.0896 2121.3979 2122.0728 2125.5623 2132.9292 2141.9597 2148.1899 2158.9900 2172.2085 2187.2815 2198.1174 2209.4104 2216.6738 2229.6799 2244.8726 2256.8984 2265.5317 2269.4255 2255.9995 2243.7393 2233.5554 2220.7356 2207.8174 2205.0786 2207.2583 2204.6079 2202.6956 2197.9221 2192.5144 2187.2920 2180.2559 2173.4749 2167.4907 2160.0579 2151.9705 2143.3689 2134.0994 2125.3538 2118.5498 2112.7715 2108.2451 2105.0691 2102.3064 2100.7131 2096.4443 2090.6064 2085.9412 2082.7693 2081.0220 2080.8052 2079.5071 2076.1665 2071.9751 2065.1448 2054.7192 2046.2004 2037.6769 2033.6146 2029.3743 2026.9811 2027.8160 2030.2909 2031.1144 2032.6475 2035.0436 2040.1949 2046.8549 2056.1921 2062.5361 2065.6816 2068.1011 2069.8628 2072.2332 2074.1255 2074.6621 2071.5920 2066.3269 2061.6965 2058.8516 2058.8188 2059.0781 2059.5596 2059.1711 2058.4636 2058.0178 2056.2056 2050.1367 2049.5098 2049.6172 2049.2749 2045.2750 2042.5396 2042.5334 2047.3027 2051.6108 2057.6260 2061.9824 2065.1211 2068.5068 2061.2019 2051.6951 2044.0873 2039.1376 2037.3403 2036.6454 2036.4645 2040.7264 2050.6230 2053.3901 2053.7673 2051.3579 2048.6082 2044.7976 2040.7137 2038.7814 2037.5048 2033.8619 2030.9644
2117.8040 2117.8040 2117.8040 2117.8040 2117.8040 2117.8040 2117.8040 2117.8040 2117.8040 2117.8040 2117.8040 2117.8040 2117.8040 2117.8040 2117.8040 2117.8040 2117.8040 2117.8040 2117.8040 2117.8040 2117.8040 2117.8040 2117.8040 2117.8040 2117.8040 2117.8040 2117.8040 2117.8040 2118.1057 2121.5952 2127.3477 2129.1399 2130.5020 2134.8018 2139.4939 2148.0095 2158.8821 2168.4619 2180.1418 2195.6411 2208.6052 2216.9009 2229.3855 2243.0732 2258.1453 2268.5420 2272.3269 2265.5264 2253.0500 2244.6523 2234.5459 2222.0574 2206.0959 2189.4512 2186.5894 2192.4995 2192.7388 2190.0527 2186.2014 2181.4944 2177.4937 2170.7683 2164.4297 2156.9219 2150.2695 2140.3069 2132.6162 2121.3064 2114.0078 2108.0757 2103.7197 2100.9866 2098.7007 2095.1226 2090.1658 2084.6685 2080.6760 2078.1428 2074.7959 2074.4148 2074.8870 2073.8452 2071.5825 2068.3115 2063.8208 2054.6211 2046.0433 2037.3561 2033.5396 2029.2119 2024.8617 2022.8993 2022.9014 2023.6949 2024.8101 2030.5858 2035.6898 2042.0938 2049.3298 2057.5286 2063.0334 2065.7100 2067.1335 2068.6597 2070.2676 2070.9685 2067.8914 2063.5400 2059.5820 2056.5627 2055.8330 2055.7271 2056.6619 2056.9851 2057.7097 2058.0713 2057.9983 2057.4688 2052.5276 2050.3425 2049.4858 2046.9569 2042.4816 2042.1642 2044.1285 2047.7495 2051.9058 2055.7166 2057.8542 2059.4333 2056.1792 2049.4260 2038.7206 2035.4944 2034.7721 2034.6073 2034.9321 2035.8690 2039.7595 2044.8824 2048.4106 2047.7653 2043.3571 2038.3772 2036.7822 2036.4731 2037.1526 2035.6642 2031.9264
2117.8040 2117.8040 2117.8040 2117.8040 2117.8040 2117.8040 2117.8040 2117.8040 2117.8040 2117.8040 2117.8040 2117.8040 2117.8040 2117.8040 2117.8040 2117.8040 2117.8040 2117.8040 2117.8040 2117.8040 2117.8040 2117.8040 2117.8040 2117.8040 2117.8040 2117.8040 2118.0010 2119.5037 2124.4949 2130.8799 2136.9473 2140.1987 2144.4480 2149.9568 2156.7249 2168.1443 2179.7134 2192.7151 2201.5701 2212.0847 2224.7952 2239.2695 2254.4434 2269.5186 2277.1074 2273.0771 2263.1265 2251.5042 2241.9207 2232.8149 2222.6758 2210.6604 2197.7764 2182.4290 2174.8811 2177.0559 2180.1338 2178.4778 2177.1116 2172.4834 2166.5923 2160.3809 2153.8113 2148.1296 2138.9648 2127.0583 2117.2202 2109.3267 2103.7305 2099.9871 2096.2231 2092.8152 2089.1318 2084.9565 2080.6030 2077.2019 2073.1958 2070.0908 2068.5278 2068.2441 2068.4019 2069.0586 2067.6760 2064.8679 2062.0479 2053.9846 2046.6274 2040.3441 2035.2402 2030.2415 2025.1697 2020.6946 2020.0985 2020.9675 2022.4866 2026.0278 2030.6882 2036.6165 2044.7001 2052.2212 2059.3987 2062.5427 2063.2434 2064.8162 2065.9514 2064.2668 2061.5483 2059.4192 2056.1833 2053.8464 2052.2166 2052.1177 2052.6155 2052.7000 2053.1572 2056.6572 2057.9363 2057.7559 2055.6760 2051.2188 2051.3123 2049.1292 2043.3262 2040.9415 2041.1780 2044.0317 2047.3398 2050.7769 2053.2756 2053.0046 2051.0703 2047.2078 2038.3688 2034.1429 2032.6438 2032.1458 2032.7219 2033.6510 2035.4927 2037.2137 2040.6505 2042.4491 2039.2344 2036.8077 2036.3214 2036.3367 2036.7313 2037.2941 2033.5979
2117.8040 2117.8040 2117.8040 2117.8040 2117.8040 2117.8040 2117.8040 2117.8040 2117.8040 2117.8040 2117.8040 2117.8040 2117.8040 2117.8040 2117.8040 2117.8040 2117.8040 2117.8040 2117.8040 2117.8040 2117.8040 2117.8040 2118.1960 2118.0828 2118.5503 2121.8408 2128.4275 2132.6826 2139.3787 2147.1216 2150.8804 2155.2974 2165.0437 2174.0667 2182.4792 2186.8870 2198.5334 2212.3298 2225.8794 2233.6833 2245.6274 2257.9006 2274.4009 2283.1865 2274.4912 2261.5312 2249.0464 2237.6274 2227.8237 2220.5081 2211.7598 2200.8594 2188.6980 2173.1804 2168.1082 2168.5972 2171.8369 2170.6196 2167.4004 2162.4158 2156.9607 2152.4033 2145.5247 2136.8235 2126.4490 2116.4087 2109.1841 2102.4795 2096.6602 2091.6794 2087.0723 2082.7307 2080.9336 2076.9048 2072.3584 2068.4658 2065.0371 2062.5786 2062.2361 2062.9832 2063.3564 2063.1216 2062.5491 2061.8826 2059.8125 2054.8743 2047.8937 2042.7216 2038.5371 2032.0785 2026.2812 2018.4558 2017.1052 2017.9982 2019.3065 2022.3596 2027.3669 2033.5441 2039.8893 2047.5681 2053.0002 2057.6309 2059.3914 2061.6108 2061.8191 2059.4053 2057.9961 2056.0647 2053.4512 2050.8291 2048.2322 2048.1921 2049.0369 2049.8635 2049.9629 2050.9614 2055.6333 2057.8540 2057.5315 2053.7734 2052.5659 2049.8762 2043.4097 2038.3553 2038.4869 2040.9929 2043.7023 2046.3154 2048.2603 2048.6362 2047.8490 2044.9735 2038.8484 2033.6648 2030.4166 2030.1138 2030.0414 2031.4982 2032.8929 2033.9247 2035.6713 2037.1852 2037.2074 2036.3214 2036.3214 2036.3214 2036.5342 2036.6344 2034.1765
2117.8040 2117.8040 2117.8040 2117.8040 2117.8040 2117.8040 2117.8040 2117.8040 2117.8040 2117.8040 2117.8040 2117.8040 2117.8040 2117.8040 2117.8040 2117.8040 2117.8040 2117.8040 2117.9707 2120.8220 2123.1057 2122.8428 2124.4749 2126.2905 2131.8801 2140.2961 2147.0723 2148.3696 2153.0977 2160.6423 2169.3708 2178.2004 2187.6973 2196.7607 2205.2021 2211.7244 2223.9543 2237.7324 2247.4521 2252.0725 2263.0293 2277.3950 2282.1526 2274.1665 2260.7639 2247.8672 2234.4973 2226.2881 2216.7200 2208.4536 2200.4661 2191.4292 2180.5957 2170.6167 2165.5774 2162.7014 2162.8477 2161.5286 2159.7363 2155.1929 2149.5454 2143.1938 2135.8301 2126.6880 2118.8491 2109.8359 2101.6768 2094.8696 2089.2307 2084.8162 2080.5381 2075.7249 2071.6787 2067.3811 2063.0518 2061.2024 2058.2544 2056.6050 2056.2227 2056.5786 2057.2537 2057.8237 2058.1631 2058.0662 2056.2300 2053.0332 2049.9294 2044.9380 2039.8832 2033.8253 2027.1564 2018.3932 2014.1123 2014.5088 2016.0278 2019.2815 2023.3124 2028.9235 2035.4308 2042.7921 2048.6519 2051.3020 2053.4004 2055.5510 2056.2771 2053.9990 2053.2139 2052.7856 2051.1377 2048.9146 2046.1198 2045.8191 2046.2964 2046.0315 2046.4813 2049.1191 2053.6802 2057.3953 2057.8528 2056.8389 2054.1663 2053.8958 2043.6888 2035.8085 2035.2355 2036.5509 2039.7177 2042.9805 2045.0134 2045.7250 2044.7747 2043.1702 2039.4884 2034.3905 2029.6104 2027.5029 2026.9922 2027.3066 2029.4552 2032.0377 2033.7777 2035.1301 2036.2808 2036.3214 2036.3214 2036.3423 2037.2194 2037.8672 2037.7601
2117.8040 2117.8040 2117.8040 2117.8040 2117.8040 2117.8040 2117.8040 2117.8040 2117.8040 2117.8040 2117.8040 2117.8040 2117.8040 2117.8040 2117.8040 2117.8040 2119.6138 2122.8647 2127.0845 2130.9114 2132.8442 2133.6985 2138.3372 2141.5659 2148.8188 2153.8794 2159.8582 2165.5095 2170.9294 2181.5542 2189.8018 2200.2263 2209.6206 2221.4773 2231.6667 2237.0166 2246.5381 2261.9854 2269.6118 2271.7371 2274.2292 2275.2363 2271.8391 2262.1504 2250.0767 2235.6631 2222.9729 2213.0049 2204.7104 2197.4678 2192.3513 2183.7144 2175.7334 2168.4072 2162.1230 2157.7412 2156.7566 2154.3152 2150.4722 2145.8091 2140.1189 2135.5823 2127.3325 2119.3215 2110.1453 2102.1860 2094.5408 2089.2756 2083.1567 2077.9202 2072.8752 2068.4409 2064.9258 2060.9294 2056.9956 2053.7141 2051.0391 2048.3889 2048.3171 2051.3042 2052.3132 2052.1343 2052.0974 2052.6594 2053.2007 2051.4270 2049.1960 2045.1372 2040.3324 2034.7352 2028.3787 2020.5181 2013.2289 2010.5273 2011.2594 2015.0996 2020.0507 2025.1393 2031.7341 2037.2100 2041.7542 2044.3766 2048.2007 2050.2087 2048.7974 2047.9039 2048.1040 2049.5388 2048.7993 2045.4821 2042.3168 2042.0442 2041.7751 2042.5505 2043.3201 2046.3939 2050.9941 2056.3892 2057.8645 2057.3135 2055.5349 2055.6567 2046.0679 2035.5470 2032.2794 2033.6932 2037.2678 2039.7712 2041.4484 2042.4178 2042.5920 2041.4503 2039.3682 2035.5271 2029.5326 2025.8612 2024.6490 2024.7909 2027.5696 2029.8951 2032.7036 2034.8110 2036.3978 2036.6427 2037.0759 2037.2997 2038.0522 2039.4850 2036.8447
2117.8040 2117.8040 2117.8040 2117.8040 2117.8040 2117.8040 2117.8040 2117.8040 2117.8040 2117.8040 2117.8040 2117.8040 2117.8040 2117.8040 2118.3911 2125.5964 2131.4927 2134.7803 2138.9675 2143.7275 2147.1338 2150.0156 2153.8145 2158.5820 2164.7549 2172.2634 2180.4849 2186.2834 2188.7271 2202.1182 2215.1272 2226.0168 2235.7549 2244.4131 2261.0645 2263.6475 2272.9810 2289.0566 2288.7930 2279.5061 2269.7112 2265.7698 2259.9502 2247.8345 2232.1274 2220.8262 2209.1626 2202.3943 2195.3586 2189.4167 2182.8638 2175.7258 2169.3123 2163.8950 2158.5300 2154.4399 2149.5076 2145.5796 2141.7275 2138.6787 2133.4397 2126.6023 2118.8628 2111.1716 2103.9326 2096.6116 2088.8530 2082.3579 2075.1775 2070.7290 2067.4519 2063.3398 2058.7610 2053.9578 2049.9888 2047.0178 2045.7308 2044.2660 2044.3737 2045.0961 2046.2998 2046.6917 2047.5204 2048.3796 2049.7065 2048.1853 2045.3243 2043.0530 2039.0325 2034.6482 2028.6577 2021.9377 2014.7078 2008.6696 2008.2620 2011.3060 2015.2148 2022.2120 2028.2994 2034.3813 2037.9227 2039.2451 2040.9224 2043.1309 2043.2791 2044.0784 2044.4895 2045.4001 2044.5730 2041.2062 2038.6077 2038.5651 2038.2288 2037.9089 2038.9681 2043.9371 2048.8574 2054.5950 2057.4236 2054.6782 2050.5874 2049.9463 2047.1047 2035.3250 2028.6447 2029.5985 2033.3386 2036.9736 2039.8411 2039.8326 2039.7959 2039.1715 2038.0050 2034.2511 2028.2941 2024.1378 2023.4121 2023.8518 2026.3224 2029.1324 2033.3801 2036.8673 2037.3374 2037.4761 2038.0959 2039.0354 2038.4360 2038.2982 2036.1211
2117.8040 2117.8040 2117.8040 2117.8040 2117.8040 2117.8040 2117.8040 2117.8040 2117.8040 2117.8040 2117.8040 2117.8040 2117.8040 2120.6316 2129.3420 2140.3706 2147.7690 2149.0923 2153.3171 2156.2117 2160.2075 2164.3040 2171.4934 2178.2173 2183.9082 2189.5942 2199.0908 2208.7410 2216.2002 2227.9873 2238.8770 2247.7771 2259.5149 2274.4858 2290.9373 2294.7771 2296.2673 2300.4106 2284.4954 2273.5515 2262.8936 2252.7395 2244.6228 2231.9441 2218.8398 2208.2812 2198.2302 2191.3049 2185.1257 2179.5876 2173.7161 2169.4033 2163.4299 2158.4709 2154.0889 2150.6367 2148.1821 2141.2683 2134.1917 2130.1968 2125.4810 2119.8335 2114.1438 2106.8481 2098.9368 2090.9211 2082.6001 2074.2947 2069.2598 2064.6536 2060.1833 2056.5747 2051.9644 2048.6677 2045.2362 2042.0765 2039.3750 2037.3898 2037.6385 2039.4075 2041.1373 2042.0497 2042.5258 2043.2987 2044.2124 2044.8447 2041.7593 2039.4419 2036.4199 2032.0570 2026.8962 2020.7251 2014.1438 2006.3790 2005.3673 2008.2362 2012.6710 2021.4664 2027.3032 2030.2113 2031.9475 2032.8359 2035.4081 2037.3646 2037.5723 2037.4652 2038.9390 2040.8158 2041.8099 2038.7506 2034.5406 2034.4900 2033.8580 2034.2278 2036.3746 2041.2770 2046.8165 2051.9053 2055.3525 2050.9099 2047.9828 2046.8364 2045.8562 2035.6162 2025.8903 2025.8300 2028.6920 2033.1162 2037.2012 2036.7264 2036.6970 2037.4395 2034.8887 2030.5096 2026.0604 2023.5487 2022.8267 2023.4027 2025.6166 2028.9526 2032.7271 2036.1920 2038.6537 2040.1796 2040.3441 2037.9396 2034.7346 2033.1771 2029.7384
2117.8040 2117.8040 2117.8040 2117.8040 2117.8040 2117.8040 2117.8040 2117.8040 2117.8040 2117.8040 2117.8040 2117.8040 2122.9929 2136.1689 2148.2754 2156.8965 2161.2537 2161.9143 2166.3320 2170.2844 2177.1575 2182.8591 2189.5198 2196.4841 2204.1003 2212.6240 2224.2925 2237.1838 2240.6472 2250.0208 2259.8870 2272.4976 2286.9312 2297.7043 2301.3123 2309.7158 2306.3264 2294.0076 2277.5378 2262.9585 2252.5503 2243.1904 2231.7063 2220.2546 2207.4163 2196.1001 2189.4414 2183.4907 2178.1428 2171.9868 2166.5723 2161.2488 2156.3374 2152.2275 2148.8997 2146.4553 2142.9033 2138.4377 2130.9636 2124.0806 2120.0742 2115.1006 2109.5352 2103.0894 2095.4727 2086.9097 2077.9661 2069.8447 2063.1504 2058.9138 2055.5564 2051.5466 2047.3564 2043.3337 2039.4771 2036.3953 2035.3215 2034.7009 2034.7153 2034.9652 2035.9222 2036.6802 2037.5337 2038.7249 2039.9409 2040.6298 2038.5886 2036.7401 2034.0956 2030.1277 2025.9579 2019.1666 2012.3779 2004.1305 2003.0916 2005.7368 2011.0629 2019.3634 2025.6702 2027.9885 2026.7618 2026.4950 2028.5721 2030.2849 2031.3721 2033.3192 2036.2389 2038.7435 2038.9730 2036.9020 2031.9912 2030.2844 2030.0286 2030.6385 2033.2552 2038.1407 2043.3583 2048.7512 2051.7837 2048.6653 2045.6031 2043.7919 2041.8778 2037.3782 2024.6367 2020.9856 2022.1191 2025.1840 2032.2524 2034.4406 2034.3711 2035.1483 2032.3641 2028.4899 2024.5531 2022.6202 2022.0596 2022.4017 2024.6089 2027.9821 2032.7399 2036.1693 2038.9050 2041.2222 2039.9509 2036.5299 2027.8418 2026.5562 2021.5992
2117.8040 2117.8040 2117.8040 2117.8040 2117.8040 2117.8040 2117.8040 2117.8040 2117.8040 2117.8040 2117.8696 2127.3291 2140.7883 2153.9358 2162.6440 2170.3445 2176.0781 2178.4548 2182.4441 2188.0078 2193.0994 2201.2009 2208.3669 2218.9294 2229.5081 2239.4521 2246.6328 2264.1370 2270.4106 2278.4324 2288.5398 2295.0842 2302.4736 2306.4497 2313.3118 2311.8335 2298.3145 2285.5466 2266.4421 2251.9854 2239.5569 2231.4001 2220.5107 2207.4160 2194.5044 2188.9585 2183.6108 2176.8494 2170.2864 2164.9253 2159.6499 2155.6162 2150.4995 2145.7573 2142.5225 2139.4294 2136.6387 2133.8774 2125.9104 2119.0449 2113.8879 2109.9558 2106.4592 2101.2566 2093.8191 2084.8557 2075.0083 2065.5615 2059.7158 2055.4583 2051.4626 2047.3180 2043.4772 2040.0101 2036.7899 2034.1591 2032.2728 2030.9495 2030.2681 2030.3384 2031.9128 2032.5533 2033.2694 2034.1198 2035.0824 2035.7546 2036.0474 2034.0634 2031.3678 2028.0302 2024.1727 2017.4229 2010.1541 2002.9247 2000.3319 2001.8108 2006.8042 2014.9633 2021.5778 2023.0094 2021.4514 2021.2834 2022.2676 2024.8967 2025.8013 2028.7850 2031.9691 2034.7947 2036.1157 2033.2963 2027.7024 2024.8435 2024.6471 2025.9695 2030.7491 2035.6146 2040.7004 2045.1460 2047.2672 2045.1309 2041.8708 2040.2173 2038.4752 2034.2347 2025.6630 2016.1625 2015.0260 2017.1132 2022.7239 2027.1611 2029.8278 2032.4114 2030.1437 2026.8004 2023.7435 2021.8561 2021.3427 2021.9520 2023.8298 2026.3156 2031.4646 2037.0406 2039.3032 2041.0861 2037.7708 2030.3477 2019.8147 2014.8602 2011.6473
2117.8040 2117.8040 2117.8040 2117.8040 2117.8040 2117.8040 2117.8040 2117.8040 2117.8040 2117.8823 2131.7368 2145.5598 2155.7058 2168.7957 2179.3984 2188.0432 2194.3181 2192.3286 2195.2515 2203.1987 2212.6038 2222.8154 2231.9070 2241.0308 2254.4739 2274.9526 2278.6094 2304.2544 2305.3701 2306.2341 2310.5002 2314.5073 2317.0288 2320.7344 2313.7209 2300.7712 2290.7388 2277.4309 2260.2300 2244.4473 2229.2607 2214.9417 2204.5889 2196.1130 2186.7625 2179.7820 2173.7981 2168.8118 2164.3247 2159.8359 2154.7607 2149.9397 2144.9382 2140.4441 2137.4033 2133.6904 2131.4321 2127.6621 2122.0024 2113.0669 2109.2385 2106.5933 2102.5898 2098.4590 2091.0537 2082.5474 2073.6685 2063.5615 2057.0908 2051.9314 2047.7631 2044.5985 2041.2063 2037.7509 2034.0636 2030.8923 2029.0441 2027.6815 2026.1152 2026.2726 2027.2642 2027.5363 2028.2312 2030.3545 2031.3265 2031.8403 2032.1448 2030.7858 2029.0468 2026.4043 2022.0183 2015.0818 2007.2390 2000.3364 1998.4489 1998.5886 2000.6467 2009.9043 2015.6821 2015.5715 2014.9468 2015.3529 2017.6110 2018.9878 2020.6433 2024.1187 2028.0203 2029.6407 2029.7238 2027.9575 2023.7863 2021.1909 2021.0701 2023.2684 2027.4777 2032.2177 2037.3489 2042.2573 2044.8082 2041.1920 2037.1971 2035.8658 2035.1687 2030.9948 2024.2739 2012.1936 2009.9983 2010.2383 2014.2113 2023.5408 2026.9851 2028.8228 2027.8224 2025.5063 2023.0594 2021.0718 2020.8221 2020.9412 2022.5868 2024.4811 2029.5151 2034.3187 2037.1257 2037.7101 2031.2130 2022.8606 2010.8336 2000.8049 1992.5363
2117.8040 2117.8040 2117.8040 2117.8040 2117.8040 2117.8040 2117.8040 2117.8040 2120.8198 2136.2502 2146.7314 2162.4441 2175.2986 2186.5308 2200.4255 2207.3926 2210.2239 2209.8892 2213.7632 2219.1558 2229.2935 2238.2275 2249.2800 2269.6780 2287.3889 2307.7957 2311.7271 2326.0837 2334.6809 2330.5872 2328.2029 2327.4326 2325.6394 2313.4666 2301.8945 2293.1335 2282.9519 2269.4380 2254.8018 2238.4941 2223.6389 2209.0002 2192.2141 2182.4048 2176.7581 2170.6743 2167.2510 2162.9631 2158.3401 2153.3506 2148.7671 2144.9231 2140.7866 2136.4390 2132.5037 2128.4573 2125.9124 2123.7246 2118.7358 2111.4902 2107.1658 2103.2659 2100.0630 2095.2827 2087.6116 2079.0852 2070.2288 2060.9880 2054.5537 2048.7715 2045.1580 2041.0798 2038.0214 2033.8290 2030.8445 2028.1067 2025.7311 2024.5425 2023.0731 2023.0264 2023.5177 2023.8530 2024.3279 2025.7032 2026.8745 2027.2762 2028.5212 2028.4908 2027.0852 2024.4495 2020.1396 2014.1344 2005.6920 1999.4097 1996.3447 1996.3656 1997.2737 2000.2559 2008.1542 2007.7686 2007.5513 2008.6208 2011.4384 2013.6421 2015.2783 2018.8494 2022.0386 2023.9821 2024.5428 2022.8031 2018.1818 2014.3525 2014.3506 2017.7456 2023.7351 2029.1180 2033.4966 2037.9362 2040.6281 2038.5194 2035.1099 2032.8485 2031.4496 2028.5919 2022.1080 2011.1055 2007.0441 2007.9073 2012.7316 2020.5548 2025.3186 2027.6344 2026.5627 2024.7051 2021.8911 2019.9240 2019.2279 2019.5321 2021.5753 2023.3794 2026.2590 2029.6550 2031.8900 2030.3864 2024.5206 2014.1854 1999.3267 1983.3927 1978.1014
2117.8040 2117.8040 2117.8040 2117.8040 2117.8040 2117.8230 2120.2468 2124.1697 2140.6978 2154.7080 2169.5862 2183.1609 2193.8943 2209.1277 2225.2542 2237.0718 2228.5090 2229.1853 2229.9497 2232.0200 2244.3162 2258.9360 2275.8955 2299.2039 2315.3745 2330.5874 2343.0029 2349.3843 2349.9692 2346.0596 2341.3000 2327.8257 2314.7397 2302.8640 2294.5881 2284.2437 2274.9241 2263.3665 2250.0955 2234.3025 2218.8875 2203.4707 2183.4888 2175.0259 2170.0891 2165.5303 2161.5571 2156.9990 2151.9932 2148.0703 2143.4888 2139.1206 2135.1748 2130.8987 2127.3008 2123.6204 2121.3635 2119.2183 2114.8772 2110.7822 2105.7332 2100.2207 2096.6426 2090.7361 2083.4741 2075.6631 2067.5657 2059.3940 2051.5381 2046.1531 2041.0758 2037.0962 2033.6683 2031.2875 2029.0701 2026.7814 2024.6556 2022.9525 2021.0479 2020.2507 2020.1295 2020.2581 2020.6826 2021.5831 2023.2301 2023.3533 2023.6948 2024.4913 2024.2561 2022.0648 2018.0973 2013.6338 2004.3363 1998.8395 1995.0087 1994.3403 1994.7126 1995.8607 1997.6611 1997.7471 1999.1105 2002.8751 2004.4121 2005.8579 2008.7445 2011.8005 2015.5835 2016.6923 2015.9875 2014.2448 2011.1115 2009.6005 2009.7067 2012.7719 2018.5415 2023.6980 2028.3723 2032.4010 2035.8794 2033.8855 2031.0884 2029.0323 2028.4790 2025.9102 2020.2402 2008.6534 2003.0590 2005.8235 2012.8052 2019.3239 2023.9061 2026.2484 2025.6802 2023.4974 2021.0178 2018.5646 2016.6680 2016.5125 2018.0760 2020.4618 2022.8296 2025.7156 2025.5610 2021.1243 2013.4370 2003.8743 1990.8679 1973.2897 1962.0361
2117.8040 2117.8040 2117.8040 2117.8040 2117.8040 2121.1641 2134.2576 2147.5671 2159.9404 2175.8672 2186.9172 2203.4685 2221.8501 2243.5884 2267.9514 2248.7676 2242.1985 2243.6504 2248.1340 2250.8066 2265.4990 2276.4971 2295.9028 2314.0713 2335.8379 2347.6604 2355.0728 2359.5999 2364.0212 2358.2942 2337.0884 2319.5359 2305.3184 2295.9177 2285.6831 2277.4385 2269.1221 2257.1692 2244.8982 2229.8157 2215.4817 2199.7163 2182.4248 2169.4685 2163.3484 2159.1626 2156.1394 2152.0715 2147.1873 2142.5579 2138.1487 2133.8870 2130.8110 2126.7458 2122.7000 2119.5552 2117.0505 2114.7573 2112.8740 2108.9683 2104.6550 2099.9888 2095.6716 2086.3228 2078.8071 2071.4771 2064.4424 2057.5959 2050.9590 2044.9736 2039.3905 2035.8489 2033.8960 2033.2493 2031.7992 2029.4948 2027.5286 2023.6158 2021.1899 2019.2938 2017.4960 2017.6190 2017.5002 2017.7413 2017.3113 2017.0020 2017.3591 2019.0708 2020.0983 2018.0072 2015.4877 2012.5884 2004.8782 1999.0580 1994.7710 1992.0098 1991.0747 1991.4305 1992.7046 1993.3457 1994.0975 1995.1509 1996.0459 1998.5139 2002.7344 2005.0621 2007.0424 2007.7555 2007.1436 2006.4579 2002.7990 2001.3529 2003.5129 2008.0479 2012.2202 2018.3076 2023.0724 2027.0614 2028.9370 2026.8271 2025.2517 2025.8776 2026.7114 2020.5481 2011.2360 1999.1860 1997.7957 2004.7834 2013.0623 2017.3683 2021.1470 2023.3153 2024.0747 2021.9398 2019.2590 2016.4482 2013.1727 2012.9564 2015.2400 2016.9518 2018.7507 2020.3761 2018.4935 2014.8938 2004.4163 1989.0082 1976.2880 1966.4866 1954.1171
2117.8040 2117.8040 2117.8040 2118.3416 2126.7114 2140.3455 2152.1924 2165.4907 2178.2761 2194.4624 2211.9033 2228.1636 2250.2031 2279.4614 2280.5488 2262.8691 2263.7944 2265.1975 2271.8079 2272.2505 2282.9700 2298.1882 2313.1689 2326.1433 2343.6765 2354.5552 2365.5100 2377.4097 2374.2249 2355.0823 2334.8777 2310.2310 2299.0420 2291.5093 2281.8691 2274.4937 2266.0044 2253.9561 2240.3906 2225.8105 2212.4033 2195.9001 2182.4065 2168.5908 2158.5774 2154.3252 2150.3035 2146.1658 2141.1936 2137.6013 2133.9673 2130.0564 2126.2312 2122.2344 2119.0088 2116.6768 2114.2417 2111.8667 2108.8110 2104.1365 2100.4817 2099.4058 2094.9707 2085.7078 2075.4229 2067.0183 2060.2280 2055.1958 2050.5996 2043.7142 2039.3579 2038.7428 2039.8005 2040.4805 2037.6627 2035.1996 2031.7039 2027.2566 2023.5033 2019.5813 2016.8884 2014.5435 2012.9956 2013.1613 2012.6193 2010.6023 2010.2001 2011.5784 2014.4979 2014.7886 2013.3811 2009.8798 2005.2955 2000.4065 1995.4271 1991.0118 1989.4044 1988.0588 1987.3341 1987.7355 1988.1273 1988.7693 1988.9196 1990.1504 1992.9070 1995.7968 1998.1733 2000.7162 1999.6680 1997.2363 1995.9125 1995.9563 1998.7303 2003.6156 2007.5686 2011.4557 2015.6458 2018.9989 2021.2446 2019.6654 2017.2897 2017.2609 2017.6984 2012.0254 1998.7572 1990.1133 1993.1348 2002.9689 2008.8928 2013.9060 2017.2668 2019.2002 2020.4210 2019.8938 2018.0643 2015.4459 2012.3461 2010.9407 2011.6873 2012.9690 2013.6648 2016.0435 2014.5831 2002.9657 1987.8700 1972.3082 1963.0024 1953.8142 1946.6548
2117.8040 2117.8040 2121.9285 2132.1731 2146.5386 2156.3718 2169.9539 2185.4268 2203.8406 2220.4060 2235.3206 2249.7791 2275.8503 2302.3557 2298.8259 2284.9238 2285.4597 2286.0244 2292.3350 2300.0190 2300.4580 2311.6243 2322.7222 2335.1045 2351.3240 2365.4912 2381.9304 2378.4126 2366.2686 2348.1792 2331.2061 2306.9241 2292.9861 2285.6047 2277.9976 2271.6079 2262.9458 2250.7778 2236.9248 2223.4829 2210.2710 2195.9600 2181.6870 2168.7664 2157.6992 2150.0796 2144.8215 2140.8191 2135.6189 2131.8276 2128.6890 2125.5315 2122.5601 2119.2283 2115.9534 2113.2842 2110.5574 2107.4062 2104.5647 2100.1211 2095.5925 2091.3779 2085.8394 2077.6768 2069.8826 2061.6909 2056.6248 2051.6882 2047.5979 2043.7269 2043.5493 2044.6602 2044.5128 2045.3561 2046.0498 2043.0605 2039.0139 2032.3925 2025.9451 2021.6068 2017.6196 2014.7286 2012.1471 2009.9335 2007.7789 2005.3889 2002.9052 2001.0922 2003.7356 2007.4115 2006.5314 2003.6285 2002.6277 2001.0798 1995.8583 1991.0197 1989.5312 1987.4277 1984.2853 1984.2346 1984.4445 1984.3123 1984.4270 1984.7731 1986.3831 1987.7787 1989.6002 1991.0464 1991.0995 1990.3286 1988.7214 1990.2477 1995.2296 1998.8060 2002.7352 2005.4374 2009.9230 2012.1904 2012.2928 2010.1636 2007.6388 2003.9481 2003.2849 1998.6492 1986.2056 1981.8986 1989.0254 1995.1311 2000.9037 2008.8315 2013.5951 2015.2976 2015.9406 2017.7518 2017.0355 2014.3169 2011.4792 2008.7223 2008.8306 2008.9495 2009.0702 2010.9917 2010.6245 1997.5922 1978.5541 1964.1986 1950.7371 1940.4552 1934.4178
2117.8323 2122.4292 2134.4634 2145.3738 2157.1626 2175.3777 2195.2222 2213.4397 2227.3694 2246.1135 2266.4863 2283.0332 2300.7976 2320.8599 2319.3245 2305.7078 2307.5718 2312.4111 2315.0054 2315.8655 2315.7312 2320.6997 2331.1592 2343.3447 2358.6335 2373.4053 2375.8740 2368.2153 2357.6382 2343.7461 2328.2805 2305.3645 2290.2578 2280.4929 2274.3628 2268.1436 2258.4814 2246.7153 2233.1445 2221.4519 2208.6636 2196.2996 2182.8250 2170.1470 2159.1895 2150.3057 2144.1536 2139.4500 2134.7300 2130.0461 2125.7859 2121.8440 2118.1890 2114.8682 2112.1311 2109.6072 2106.9133 2103.4214 2099.6250 2095.1577 2089.9866 2084.9048 2078.8188 2070.6965 2063.0071 2058.6907 2054.4441 2050.3289 2047.9556 2048.4934 2051.7471 2051.2441 2051.5940 2054.3308 2057.7698 2052.3374 2046.1466 2038.5198 2030.2618 2023.9662 2019.7487 2016.5692 2013.5621 2010.5897 2009.9993 2007.1187 2003.1084 1999.7202 1995.3610 1993.7209 1997.9871 1996.5464 1993.6959 1991.3958 1990.0059 1989.6216 1989.9474 1988.8545 1984.1199 1981.4376 1980.3118 1980.6969 1981.6125 1981.7150 1981.6752 1981.8943 1982.4916 1983.8844 1984.0579 1983.0223 1983.2084 1985.6509 1989.6943 1994.7832 1998.5870 2000.9386 2002.5153 2003.5298 2003.6879 2004.5251 1999.8502 1993.5903 1990.8108 1989.8892 1978.0608 1975.9196 1979.8107 1984.4064 1990.6649 1998.3199 2008.0085 2013.3770 2014.8971 2015.8075 2015.9482 2014.1001 2010.5873 2006.7067 2003.1105 2000.1318 2000.0267 2001.8604 2004.9269 1997.5671 1971.7893 1954.2959 1943.6127 1933.3450 1925.9811
2126.0835 2136.5608 2149.1821 2164.1201 2177.2104 2196.3015 2213.2317 2232.3784 2256.6675 2281.8677 2304.7888 2316.8228 2332.2109 2348.7717 2344.8403 2332.8384 2330.4141 2332.6248 2331.6079 2331.0842 2330.6111 2332.1592 2337.6362 2349.1870 2363.7295 2375.8970 2367.1880 2359.4026 2351.5967 2340.4663 2326.2227 2305.7944 2286.5564 2275.2910 2268.2278 2261.4678 2253.7878 2242.1755 2230.1072 2218.6191 2207.0938 2196.6428 2184.8770 2173.4495 2160.8027 2152.1675 2145.2212 2139.9497 2133.9729 2130.0510 2125.7876 2121.2751 2116.6919 2112.1667 2108.2612 2105.1084 2101.9172 2098.9414 2094.7490 2089.8364 2085.1067 2079.1860 2072.6638 2067.4380 2063.0559 2060.2603 2055.2383 2051.0347 2049.4404 2052.8411 2059.6304 2065.6504 2068.5781 2070.1462 2072.2288 2069.5769 2059.0298 2046.0023 2034.7856 2026.3068 2021.9495 2018.3871 2014.9513 2013.3325 2013.6681 2012.3270 2007.1687 2001.5844 1995.4595 1991.0148 1988.1660 1987.0264 1986.0260 1985.9490 1986.2640 1986.2161 1988.0619 1990.6146 1988.8158 1982.3767 1977.9932 1977.5851 1978.3566 1977.8940 1977.5648 1976.8528 1977.2557 1977.2627 1975.9567 1975.5297 1976.4692 1982.0776 1986.1951 1990.4053 1993.0499 1994.4033 1996.8470 1996.2252 1995.6873 1995.5807 1992.5981 1986.8364 1984.1942 1980.0436 1972.6492 1970.9147 1973.1036 1976.3885 1983.2507 1989.8612 1996.8923 2006.6219 2013.0950 2014.5992 2014.4335 2013.9017 2010.5643 2005.5869 2001.9247 1994.6982 1992.7960 1993.2889 1994.3340 1988.2332 1970.1385 1950.5128 1937.4998 1927.5111 1923.1226
2141.5017 2153.3044 2165.5913 2179.7590 2196.3176 2217.0100 2235.1692 2256.0601 2280.9795 2310.0427 2335.1021 2352.5884 2369.3748 2373.4783 2362.9629 2353.3979 2352.8340 2353.4673 2350.5940 2344.6169 2342.3169 2343.4846 2348.2102 2356.0542 2368.2815 2366.6030 2357.8645 2351.4512 2346.2615 2336.4429 2322.9854 2306.8782 2286.2993 2271.4358 2263.3052 2255.7256 2246.4421 2236.9326 2224.9722 2214.9653 2205.5198 2196.6965 2185.0969 2174.7170 2162.7058 2155.0427 2147.7688 2141.0715 2134.1860 2130.3601 2126.2112 2121.5935 2116.6221 2112.0879 2107.1318 2102.1189 2097.8816 2094.5088 2090.5437 2085.5500 2080.5244 2076.8860 2073.6428 2070.8560 2066.2327 2063.0928 2058.1077 2054.6516 2054.7261 2058.1692 2064.9980 2073.8601 2076.4021 2076.9463 2077.3813 2075.6069 2063.8445 2050.2083 2039.9077 2030.9395 2024.2725 2020.3368 2017.0173 2016.2976 2016.3689 2015.4486 2011.1265 2002.6184 1996.7688 1991.8049 1988.6007 1987.4226 1985.8159 1984.4515 1983.2230 1981.8610 1980.9836 1985.0906 1985.3212 1978.3020 1976.4769 1975.7235 1975.8862 1975.5573 1974.9976 1974.5979 1974.5166 1974.3578 1973.7306 1973.7345 1975.2334 1978.5930 1982.1501 1985.8735 1989.0500 1989.8094 1989.2156 1986.9415 1986.1765 1988.0717 1987.4368 1979.7535 1977.9989 1974.8412 1969.0172 1966.7810 1967.8473 1970.9973 1974.4464 1980.9806 1988.7451 1999.1245 2006.7195 2010.7864 2010.6853 2008.7041 2005.1565 2004.1836 2000.5839 1987.9480 1977.7825 1978.1562 1979.1379 1971.6349 1962.2629 1944.4814 1929.8586 1924.7333 1921.2670
2155.3037 2168.8081 2184.5327 2203.3960 2221.6135 2234.8218 2255.2874 2276.7341 2306.7622 2342.8379 2368.7568 2382.3455 2400.1177 2395.3625 2385.0012 2376.8093 2373.8137 2371.4980 2366.2603 2357.8308 2352.6873 2352.3977 2356.6304 2363.7654 2367.2749 2360.8887 2352.0156 2347.1055 2341.3855 2331.4875 2320.1816 2305.9373 2286.2170 2271.6011 2260.2607 2248.6287 2239.8743 2233.1521 2221.6343 2211.8086 2202.8201 2193.3665 2182.3816 2174.6379 2166.7275 2160.3662 2152.3643 2145.4543 2137.3110 2132.1470 2126.6296 2121.6919 2116.4409 2111.9006 2107.0322 2101.9963 2097.1311 2092.6328 2088.2808 2084.3472 2080.5916 2078.0442 2076.8074 2074.2224 2070.5718 2064.1135 2059.6418 2056.9009 2057.3276 2061.0398 2070.6501 2076.4880 2078.8445 2078.8977 2078.3525 2073.2056 2062.5623 2054.4409 2044.6429 2035.6780 2027.6606 2022.9662 2020.5442 2020.6467 2019.7416 2017.3595 2011.9895 2004.8601 1999.3110 1994.5776 1991.4126 1989.8700 1988.3501 1985.3215 1983.7147 1981.8726 1979.8058 1978.8243 1977.6219 1976.1993 1975.5078 1975.0125 1974.6415 1974.2509 1973.6986 1973.5222 1973.0177 1972.7113 1972.2886 1972.6836 1973.7308 1976.1844 1979.1599 1981.3668 1982.3646 1983.2039 1983.4749 1981.1804 1979.0583 1978.8910 1977.3339 1970.6427 1969.0946 1965.9106 1963.1179 1961.9055 1962.2042 1965.5197 1969.7128 1974.4302 1980.6143 1985.8751 1990.9768 1995.3698 1998.4325 1996.3246 1993.6711 1994.5635 1993.3917 1985.4023 1968.9030 1963.5934 1962.9552 1955.3212 1946.8578 1936.2072 1921.8401 1921.1753 1920.5468
2173.1887 2189.8340 2207.3845 2220.8540 2235.0486 2254.8564 2279.6387 2309.4783 2331.0447 2360.7732 2390.7266 2425.2966 2424.6301 2414.5312 2404.3933 2397.6575 2396.3599 2394.9968 2387.5364 2374.1084 2365.1206 2362.9934 2365.7595 2368.8247 2363.1396 2354.9104 2347.9192 2341.5767 2334.6750 2327.4971 2317.0872 2303.9875 2284.2925 2271.0510 2259.0728 2247.7866 2238.1309 2228.2307 2217.3555 2206.5759 2197.6194 2186.9761 2178.2637 2170.7441 2164.5740 2158.7549 2151.4138 2144.5117 2137.1411 2131.8774 2126.6213 2122.0181 2118.3396 2113.8372 2109.2463 2104.0789 2097.7061 2093.8093 2089.3228 2085.8472 2084.3291 2082.6013 2081.1069 2078.8740 2075.8440 2065.3655 2060.9854 2059.3005 2059.4106 2064.7625 2071.2698 2075.8591 2079.7185 2080.5728 2076.4297 2069.8413 2060.9905 2054.5750 2048.3689 2040.4963 2032.6605 2024.8781 2023.7446 2024.9379 2024.2759 2018.1342 2010.5671 2004.3927 1999.3286 1996.7271 1994.0228 1992.4365 1990.1456 1987.3958 1984.9905 1982.6189 1980.6591 1979.6737 1978.0789 1976.6879 1975.7485 1974.7288 1974.0482 1973.6267 1972.8680 1972.4347 1972.0525 1971.0690 1970.5162 1970.1194 1969.9707 1971.9584 1974.9851 1976.4296 1977.2104 1976.7595 1977.5917 1974.1705 1970.3354 1968.3818 1965.4404 1963.0902 1961.1659 1960.4052 1959.2930 1958.5483 1958.6052 1960.5059 1962.5496 1965.5764 1969.2095 1974.6383 1978.2089 1980.0154 1981.5233 1979.7784 1979.1570 1980.3536 1975.5122 1970.7068 1962.5587 1949.4718 1949.5010 1942.8423 1934.2140 1927.2230 1921.9135 1920.8646 1920.8280
2191.3394 2206.2307 2223.6484 2237.6252 2255.5759 2278.8037 2304.1787 2326.8650 2354.4907 2378.3718 2408.0518 2447.4380 2438.2710 2430.1130 2423.6006 2420.4543 2417.5991 2411.6235 2402.9121 2389.8962 2378.4883 2374.6150 2372.1375 2366.4380 2358.8789 2351.2314 2344.9976 2338.4304 2330.4329 2323.2261 2313.5474 2299.9966 2281.9380 2270.1667 2261.0703 2252.3352 2240.3337 2229.4153 2218.1746 2206.8889 2197.8245 2187.2463 2178.0271 2170.4077 2164.8047 2158.5879 2151.2974 2144.0000 2137.1741 2132.1648 2127.8938 2125.2588 2121.5759 2117.8074 2113.9585 2110.8262 2102.4985 2097.8970 2093.5615 2091.8425 2089.7312 2087.1194 2085.0432 2084.7520 2078.4236 2070.8228 2064.9858 2061.6997 2061.0186 2064.9856 2069.7285 2074.0986 2078.6807 2078.4768 2073.1052 2064.2935 2059.1748 2053.2915 2047.6862 2041.5264 2033.7766 2028.1152 2028.0275 2029.4211 2027.5062 2021.0693 2011.4590 2006.2046 2001.2437 1998.3145 1995.6044 1993.1182 1990.4099 1987.8225 1986.0337 1984.2334 1982.1772 1981.4200 1979.8563 1978.9235 1977.1456 1975.2330 1974.0238 1973.3489 1972.6497 1971.9247 1971.2964 1970.1182 1968.8160 1967.3856 1966.1342 1966.4663 1968.0598 1968.5667 1967.9540 1966.9866 1966.7725 1967.7825 1965.3379 1962.5166 1960.4211 1959.3926 1958.2504 1957.2123 1956.0919 1954.3523 1954.3088 1952.8285 1952.9969 1957.4849 1960.6500 1962.7938 1964.8149 1966.5150 1969.4351 1969.4545 1968.1056 1966.3337 1959.8125 1955.4823 1947.9727 1939.8521 1937.6210 1932.1909 1926.6508 1924.0342 1922.8594 1923.3878 1925.3105
2210.3413 2226.2603 2241.2131 2260.8679 2280.3894 2309.5146 2334.0918 2356.6169 2375.6443 2399.5259 2421.5452 2455.7864 2452.2834 2447.7529 2440.0002 2436.7834 2431.3982 2423.9504 2412.3616 2402.1033 2389.5461 2377.4851 2370.5046 2363.6750 2355.7241 2347.4585 2340.4641 2335.3210 2328.8567 2321.9851 2313.0366 2299.8828 2282.4741 2271.8647 2265.6443 2255.0112 2241.4673 2231.2817 2221.1677 2213.8472 2205.6816 2195.9004 2182.5210 2172.6050 2167.7424 2161.8271 2157.0796 2150.5930 2142.1914 2135.5928 2131.5166 2127.8152 2125.1086 2121.1082 2115.8286 2111.2178 2105.3013 2101.7424 2100.7976 2097.9536 2094.4624 2090.7793 2089.3235 2089.1448 2085.3093 2074.5420 2069.5435 2064.2410 2063.4429 2065.2568 2069.7959 2073.9788 2079.1816 2078.1760 2072.1001 2061.6045 2057.7759 2052.0840 2046.9694 2041.4032 2034.5067 2032.8521 2032.4746 2033.6121 2032.7271 2025.5023 2016.1467 2010.4440 2004.4039 2000.3361 1997.8143 1995.1611 1992.1353 1989.4177 1987.4623 1985.8885 1984.5883 1983.3350 1982.4297 1980.8210 1978.6742 1977.1364 1975.6378 1974.2567 1973.4244 1972.3662 1971.4935 1970.8777 1969.4385 1967.7550 1965.9236 1964.9359 1963.4752 1961.9458 1961.8656 1961.3262 1961.1547 1960.2098 1959.4883 1959.4943 1959.7644 1958.5269 1956.5026 1953.0164 1952.0270 1951.5568 1950.5820 1948.8988 1948.6750 1949.2472 1950.1864 1951.6766 1955.3993 1956.5142 1957.2771 1956.7659 1954.6868 1955.1051 1948.9379 1942.8877 1937.8954 1935.3643 1932.7131 1929.5283 1925.9088 1924.2338 1923.4060 1924.9607 1929.4724
2230.2607 2242.1016 2261.1748 2287.6072 2315.5552 2343.8616 2364.0122 2380.7354 2402.8838 2416.4792 2436.1995 2460.1477 2465.4573 2459.9590 2454.8606 2446.4343 2434.5881 2422.8352 2411.1506 2399.0820 2386.6533 2376.4805 2368.4673 2360.7776 2352.5842 2344.9250 2338.9995 2333.9351 2327.9048 2320.4778 2311.7563 2299.8118 2284.8398 2276.9673 2267.5879 2256.0820 2243.2871 2234.7480 2226.5291 2219.4292 2209.0840 2198.7021 2185.4307 2177.2424 2173.8916 2169.8760 2163.9236 2157.2332 2148.8376 2139.8069 2133.2983 2130.3716 2127.0981 2122.8765 2117.8289 2113.0195 2109.2112 2106.4368 2104.0151 2101.7788 2098.2815 2095.5388 2093.0972 2091.3743 2087.9775 2080.3074 2073.3586 2067.5950 2067.4146 2069.3315 2070.0981 2074.3433 2080.0518 2079.3401 2072.1267 2062.2236 2057.5630 2052.3579 2047.0753 2041.7941 2037.2336 2037.1924 2037.2192 2040.2081 2039.9824 2031.1799 2023.0437 2016.3553 2010.6576 2004.2634 1999.6997 1997.0295 1994.6947 1991.7793 1989.0510 1987.2509 1986.2217 1985.7307 1984.7903 1983.5029 1981.8582 1979.4647 1976.4108 1975.3760 1975.1871 1974.4352 1973.8588 1973.2461 1972.1699 1969.7250 1968.3961 1967.5223 1966.8878 1962.0988 1962.0015 1962.5719 1961.6284 1960.2460 1959.5098 1959.4883 1959.2567 1958.5006 1954.8669 1952.6152 1949.6639 1947.8477 1945.6013 1944.6483 1944.4487 1944.9075 1945.2617 1945.9117 1946.4730 1946.6733 1946.7192 1947.2772 1946.0527 1942.0593 1938.0120 1936.2794 1934.8221 1932.3378 1930.2175 1927.3154 1925.4031 1924.5614 1924.8944 1927.9785 1935.1471
2244.7388 2265.0598 2288.3198 2314.8271 2336.3403 2366.3562 2393.4744 2418.2231 2429.4355 2444.8599 2451.6851 2466.5020 2474.8196 2469.6816 2462.4980 2449.6582 2434.0120 2422.3169 2410.4014 2397.9204 2386.4282 2376.9182 2368.0725 2357.7739 2349.9128 2342.0654 2338.0776 2332.5637 2326.6497 2319.3066 2309.7979 2299.1399 2288.5164 2280.6545 2269.9641 2264.4363 2252.2686 2238.5698 2229.4473 2221.5459 2209.9241 2199.1655 2185.5791 2180.4729 2178.2656 2175.8596 2170.7866 2162.5891 2152.8237 2143.7178 2136.8264 2133.8660 2130.9800 2125.8667 2120.2605 2115.1460 2113.6143 2112.0027 2108.6658 2104.3909 2100.2031 2096.8782 2096.8833 2095.1182 2090.4556 2083.9541 2075.3259 2069.8079 2069.3569 2071.4937 2072.6599 2075.2961 2081.6179 2083.7500 2076.7212 2066.0261 2059.5859 2054.8401 2049.2158 2044.4790 2041.8081 2042.5004 2046.0092 2047.5793 2046.3008 2042.3240 2036.3322 2022.8104 2015.2852 2008.3479 2003.0798 2000.1799 1997.9148 1994.9775 1991.2620 1988.9772 1988.5656 1988.6141 1988.1707 1986.6176 1985.1317 1984.0029 1980.2085 1978.4583 1978.4946 1977.2064 1976.0719 1974.9136 1973.8099 1972.9727 1972.8730 1973.2462 1974.6195 1977.7639 1980.6174 1984.9722 1982.0156 1976.2814 1969.9958 1962.5233 1960.7930 1959.7751 1953.7314 1950.8945 1948.9885 1947.3646 1945.7018 1943.7169 1942.1735 1940.3350 1939.7397 1939.9279 1940.4994 1940.4861 1940.7052 1939.9141 1938.7212 1937.6394 1934.4919 1932.4321 1931.2480 1930.2343 1928.0514 1926.3538 1925.6797 1925.6156 1926.7706 1932.6893 1941.9171
2267.5591 2291.6917 2318.1914 2342.0522 2365.4961 2384.9775 2405.8291 2431.6443 2450.6538 2465.1316 2476.4446 2481.9148 2481.5864 2475.5544 2467.1729 2448.9800 2433.8345 2422.1887 2409.9099 2396.8369 2385.1213 2375.2881 2365.8562 2357.5881 2349.8491 2342.2576 2338.1394 2333.1716 2325.6646 2317.3577 2309.0872 2302.0293 2293.0020 2285.3467 2277.6736 2271.0208 2257.4617 2243.1296 2232.8162 2222.2185 2209.6594 2199.0715 2191.9028 2185.6704 2184.5801 2182.1763 2174.3811 2166.0857 2157.7935 2150.4478 2145.1436 2139.3108 2134.9641 2129.3235 2122.7180 2120.7834 2118.8696 2114.6973 2111.2839 2107.7559 2103.3420 2100.5530 2100.9011 2098.3118 2093.3765 2086.9700 2077.1328 2071.0005 2070.9302 2072.5110 2074.3047 2080.7002 2084.3315 2087.4280 2082.6321 2072.7053 2065.9514 2060.0002 2053.1948 2047.7183 2045.3552 2046.5649 2050.9741 2054.8472 2054.3523 2051.4055 2042.9641 2028.0520 2019.2452 2012.9886 2008.6577 2003.1305 2000.1394 1998.2740 1995.7938 1994.1747 1993.4675 1992.1765 1991.6438 1989.6956 1988.2090 1988.4479 1988.5879 1985.9679 1986.0226 1986.5876 1983.1722 1977.6310 1975.3988 1974.9332 1975.0430 1976.7526 1980.2557 1986.0186 1991.4038 1996.9058 1999.0486 1998.0520 1995.0001 1982.9089 1972.0200 1964.0914 1956.0581 1951.8077 1950.5400 1948.4525 1946.5946 1944.4492 1942.4436 1940.2623 1939.0959 1938.1154 1937.1206 1936.8110 1935.6882 1935.5551 1934.4510 1933.0321 1931.7788 1930.1798 1929.4738 1928.3439 1927.3040 1926.5570 1926.6541 1927.9517 1931.6436 1938.3236 1947.6964
2289.0901 2319.4092 2346.4719 2374.0085 2395.4067 2409.9480 2424.7612 2446.2051 2468.7273 2485.0735 2490.6104 2493.9478 2489.2302 2481.9778 2466.9600 2447.1377 2434.3284 2422.3513 2409.9004 2396.8049 2384.9790 2375.1716 2365.4382 2357.9734 2351.0295 2344.7002 2338.6433 2332.9170 2325.6587 2321.2256 2315.0798 2306.6086 2297.5488 2291.1069 2282.7295 2270.9946 2259.5356 2247.2668 2234.7566 2222.4514 2213.0249 2205.5957 2199.2217 2196.3708 2196.1594 2193.9324 2184.8870 2175.3542 2166.3889 2157.0627 2150.8938 2145.6169 2139.8005 2132.5217 2127.7510 2125.7542 2122.8809 2118.6165 2114.5737 2111.2622 2107.7400 2104.4231 2103.3428 2100.7937 2096.6963 2089.5950 2079.3540 2072.4414 2072.6001 2075.8384 2082.3794 2087.5139 2088.2290 2090.0234 2088.2278 2083.1357 2077.2385 2066.4673 2058.6917 2051.2913 2049.5771 2050.8503 2056.6147 2061.9968 2060.2952 2056.4841 2048.5571 2032.3749 2023.1443 2017.9130 2013.0232 2008.4191 2005.0040 2002.4889 1999.4561 1999.2456 1998.5990 1997.3903 1996.7748 1996.8326 1996.9646 1997.2858 1995.9435 1995.2275 1995.9447 1999.4215 1992.4840 1985.6783 1979.3705 1976.5991 1976.9615 1980.7144 1984.8473 1991.1757 1998.7333 2003.9735 2006.2720 2006.7587 2006.1284 2003.1250 1996.2472 1980.8606 1964.0262 1957.1624 1953.7227 1951.2302 1949.1638 1946.7174 1943.9825 1942.1619 1940.5714 1939.0616 1937.1173 1935.9927 1935.2245 1934.4702 1933.6060 1932.6511 1932.0975 1930.8470 1929.1843 1928.2690 1927.6010 1927.7903 1929.9873 1933.3424 1936.5917 1941.9148 1952.2476
2309.5747 2337.8108 2367.4719 2395.0869 2421.1733 2441.1809 2453.6482 2463.4443 2479.6736 2497.3020 2508.7437 2506.5833 2497.3926 2487.3022 2469.3901 2448.8601 2436.4805 2424.1233 2410.7444 2398.6736 2388.3384 2378.4597 2368.6079 2359.9473 2352.7908 2345.4641 2339.0852 2335.0503 2332.2131 2326.6079 2319.2778 2312.2363 2306.5969 2297.0498 2284.8306 2271.1589 2259.2942 2248.3049 2238.8667 2228.8823 2219.5874 2209.1094 2206.4736 2206.7493 2207.1443 2203.7058 2196.6731 2183.5500 2173.2966 2164.7571 2158.4441 2151.2952 2142.6975 2135.5925 2134.7422 2130.4700 2125.7649 2120.8191 2116.8967 2113.0454 2109.8042 2107.1250 2105.5073 2102.6143 2098.9065 2090.8101 2080.4380 2076.6584 2078.4473 2083.4287 2088.6604 2092.3896 2094.1648 2095.1399 2092.6323 2089.0442 2083.4180 2074.6206 2063.0400 2057.6758 2054.8079 2054.6428 2061.4106 2069.4753 2067.7021 2060.2878 2048.9536 2038.6036 2031.1362 2024.1930 2018.3168 2012.6774 2010.1267 2007.8083 2006.5164 2006.3212 2005.6504 2002.8900 2001.8226 2001.7750 2005.5813 2009.0204 2005.4423 2002.6052 2005.6744 2011.8816 2001.8781 1991.7306 1985.0782 1980.8691 1980.4711 1983.7841 1989.5743 1997.3762 2003.5706 2007.3246 2009.9285 2011.6970 2012.7076 2012.6359 2004.5310 1993.9756 1973.8282 1963.4144 1958.6786 1954.6659 1951.6761 1949.1714 1946.5757 1944.3446 1942.5477 1940.8094 1938.6512 1937.2687 1936.6217 1935.9534 1935.0631 1934.0566 1933.4523 1932.5654 1931.9534 1931.8545 1932.0970 1932.5331 1934.4735 1937.5399 1942.3837 1947.7401 1959.6049
2312.7520 2342.2654 2373.2937 2405.3857 2436.6250 2460.7395 2474.7781 2481.9612 2494.3823 2510.7129 2522.4304 2516.2380 2508.8064 2498.6978 2477.3242 2454.6382 2443.0513 2430.1152 2416.7290 2402.2900 2389.7695 2377.6775 2367.1445 2359.7424 2352.8445 2347.8538 2344.5793 2339.9138 2337.0234 2332.0745 2327.5459 2321.0437 2312.7749 2302.9658 2288.4753 2273.3579 2263.4458 2254.6450 2243.9456 2234.3835 2224.7622 2217.7017 2213.9341 2212.1008 2209.0718 2204.3301 2199.0430 2191.5769 2179.2188 2169.7454 2161.8345 2153.0527 2144.5576 2141.7346 2138.7634 2134.3855 2128.2822 2123.2871 2119.2070 2115.0037 2111.5139 2109.4060 2107.3577 2103.9519 2100.0874 2091.4255 2080.6746 2079.7715 2083.6592 2090.9211 2097.2744 2099.7415 2099.5732 2099.2136 2096.4944 2093.1094 2088.6709 2079.6824 2068.0288 2063.3367 2061.9006 2060.5847 2063.5332 2071.7126 2073.7861 2065.6711 2058.8701 2050.4080 2042.8240 2030.3448 2022.6724 2019.0212 2017.1974 2015.0815 2013.6398 2013.3391 2013.4749 2014.5217 2014.6730 2014.3282 2014.8014 2018.2144 2014.6216 2013.8059 2018.5895 2014.6586 2003.2159 1995.9082 1990.1461 1985.4717 1984.6881 1987.5645 1993.5198 2000.9209 2006.9771 2011.4425 2014.7280 2016.8988 2017.0657 2016.3800 2007.8809 1997.5658 1981.2290 1968.1213 1961.6229 1957.9045 1954.4462 1951.6394 1949.0308 1945.7521 1943.7051 1941.9313 1940.7734 1939.1669 1938.3235 1937.7756 1937.0828 1936.5099 1936.0674 1935.7488 1934.8644 1934.6571 1935.2408 1935.8790 1938.3152 1942.1495 1946.7087 1951.4282 1967.3419
2330.9556 2351.5439 2374.5771 2402.6082 2432.7251 2460.9541 2488.2102 2505.6672 2512.0208 2523.5701 2532.5615 2528.3228 2522.7898 2509.5383 2488.0674 2468.7722 2455.3169 2442.6956 2426.1875 2407.6726 2390.9053 2378.8147 2368.7417 2363.3225 2356.5725 2351.6382 2350.0691 2347.5933 2345.6389 2343.9951 2337.9106 2332.5918 2321.3728 2310.3628 2294.2275 2278.6931 2266.7998 2258.4873 2249.4080 2240.8535 2232.4968 2221.9919 2216.1719 2209.0510 2203.8447 2199.4099 2193.8613 2184.4580 2174.8152 2167.4380 2160.7095 2153.7646 2150.1775 2146.6934 2141.9111 2136.9780 2131.2131 2125.3293 2120.6726 2117.5825 2114.7964 2112.8428 2110.1316 2105.7256 2100.3142 2091.2100 2083.6274 2084.3064 2091.9827 2100.1885 2104.3965 2105.6416 2104.7832 2103.6851 2101.2705 2096.3630 2091.5049 2083.9868 2074.0005 2071.5500 2068.5095 2064.7810 2064.9141 2070.3057 2073.5356 2076.2739 2068.6682 2062.4656 2053.9001 2042.3489 2029.8275 2025.5687 2024.0074 2023.1881 2021.7366 2022.4714 2024.3568 2026.0630 2026.4038 2026.0287 2026.0592 2028.2322 2026.4912 2025.9663 2022.5148 2013.7758 2002.9016 1997.6012 1992.8937 1988.6603 1987.8586 1992.3031 1999.1995 2005.2073 2011.9808 2016.0729 2018.3210 2020.2977 2020.5601 2016.9232 2008.2345 1997.9211 1986.2648 1975.5840 1965.7157 1961.2814 1956.5099 1953.2855 1950.0992 1947.0497 1945.2615 1943.6982 1941.8013 1940.3188 1940.5695 1940.7266 1939.8363 1939.2350 1938.6954 1938.8181 1938.1212 1938.1368 1938.8888 1939.4894 1940.7751 1945.4915 1950.4363 1956.6068 1971.3359
2348.0388 2366.4285 2384.6113 2406.7000 2433.1665 2461.0837 2487.3047 2512.0825 2528.6208 2539.7097 2541.3391 2536.9429 2532.8337 2521.1558 2498.4395 2481.7437 2466.3091 2450.2661 2433.7422 2415.2710 2395.6912 2383.1133 2374.2117 2369.5408 2364.3010 2359.8496 2359.5596 2358.6487 2357.7141 2355.4834 2351.5674 2344.8384 2335.4980 2317.3220 2302.0867 2284.6309 2272.0215 2262.2041 2254.0264 2246.8706 2237.0337 2225.6914 2215.7058 2208.6763 2201.4592 2194.0623 2186.8003 2180.0959 2173.7952 2168.0037 2162.9556 2160.2725 2155.7581 2150.3142 2144.6633 2139.1797 2133.4177 2127.6462 2122.7964 2120.7585 2118.0688 2115.0205 2112.1965 2107.5542 2100.6013 2091.2017 2087.3513 2089.6377 2097.4822 2106.9016 2112.2546 2111.2778 2108.7805 2107.7346 2106.8191 2102.6194 2096.1055 2087.8987 2080.3923 2076.9531 2074.5559 2071.4385 2069.9021 2071.4895 2075.1213 2082.4033 2080.1453 2075.7664 2068.1721 2054.2380 2037.1095 2035.1549 2033.7185 2032.7611 2032.4749 2034.4218 2035.4113 2036.5369 2037.4777 2036.7477 2036.6240 2033.8669 2032.7480 2028.8124 2022.3850 2013.8093 2007.0411 2000.1371 1995.6704 1991.8210 1992.2036 1997.0640 2003.3630 2009.7947 2015.6228 2019.8942 2022.9342 2024.4193 2022.1793 2017.6257 2009.8662 1999.4592 1987.8149 1977.8456 1969.2944 1964.1433 1959.2289 1954.6521 1951.2284 1948.2932 1946.5944 1944.9557 1943.6610 1943.5906 1944.0494 1943.7532 1943.1995 1942.4927 1942.3275 1942.3195 1941.4342 1941.4929 1942.2943 1943.3951 1946.1031 1950.0513 1955.8175 1961.9192 1973.5017
2376.9365 2388.1892 2405.5098 2418.4299 2443.8230 2469.3472 2492.0911 2518.0718 2538.8813 2549.9231 2549.1101 2548.0298 2543.7170 2526.8936 2501.6165 2484.8418 2470.3059 2452.0481 2435.8821 2418.5930 2400.4419 2387.6504 2381.4314 2378.6516 2375.5010 2371.3425 2371.3149 2371.4617 2370.1338 2367.2605 2362.0962 2354.2039 2343.7615 2329.4343 2312.3577 2291.8533 2276.1760 2265.6401 2259.9480 2252.8105 2242.0312 2227.9536 2221.8086 2217.3535 2207.8220 2198.6426 2191.0652 2183.1943 2180.0679 2178.4529 2176.2036 2171.0378 2162.0229 2152.8591 2145.8252 2140.5679 2135.4307 2132.2192 2127.3154 2123.4961 2121.1062 2118.0647 2114.1145 2109.7659 2100.9502 2092.4453 2090.4851 2093.9895 2103.2495 2112.5281 2116.7346 2115.6279 2113.5254 2113.1226 2113.3818 2111.8455 2103.7617 2094.3091 2085.0466 2082.1521 2079.3823 2075.8740 2073.6375 2074.8589 2080.4971 2087.5339 2088.4758 2084.2041 2078.0293 2066.6702 2052.2405 2049.5576 2046.9008 2043.7465 2043.3109 2045.7756 2049.1497 2050.0647 2047.8701 2046.1263 2044.3230 2041.5017 2038.2166 2030.3521 2022.7905 2016.7910 2011.8534 2004.9380 1998.4900 1995.9014 1996.0271 1999.3438 2005.6454 2012.7953 2018.4176 2023.6089 2026.2886 2027.4056 2024.4369 2018.6482 2011.8403 2002.2367 1991.0916 1978.4750 1971.2781 1966.0895 1960.4716 1955.1852 1952.0498 1950.9445 1948.9838 1947.1215 1946.5193 1946.6598 1947.8199 1948.5399 1948.5164 1947.6075 1946.2186 1944.9534 1944.4713 1944.8022 1946.6494 1948.8070 1951.0917 1954.2994 1961.1891 1969.3423 1978.3441
2402.2375 2410.9292 2427.0918 2446.2600 2467.4626 2487.9573 2509.6992 2527.2207 2542.9502 2553.0232 2554.0928 2553.1169 2550.6990 2531.0574 2506.5981 2487.8008 2469.5574 2450.8811 2435.5186 2418.6206 2404.6736 2394.5908 2390.1106 2386.6226 2383.7717 2382.1394 2380.8125 2377.8174 2374.1704 2371.8264 2369.2012 2362.7666 2352.4795 2340.8000 2323.2903 2304.2993 2284.5950 2272.6377 2265.5078 2256.1550 2242.5059 2232.1653 2235.8186 2232.6848 2222.8350 2212.4026 2206.1455 2199.7507 2194.7712 2190.6128 2184.8992 2177.1382 2167.2151 2157.6052 2148.5066 2143.6660 2138.6982 2135.8564 2132.1011 2127.9492 2124.4683 2120.4893 2115.2537 2109.7383 2101.1423 2095.1033 2093.5437 2097.6812 2107.6824 2115.7439 2121.3813 2122.0925 2119.8572 2117.5190 2116.8489 2116.8547 2118.6016 2108.8530 2096.5732 2085.6880 2083.9749 2079.7661 2078.6648 2081.4888 2086.5251 2092.4927 2094.5525 2091.7351 2086.5847 2077.0330 2066.8689 2064.5801 2063.6826 2060.9688 2060.3623 2060.5417 2059.4065 2060.9619 2060.3916 2056.6255 2053.4829 2047.9014 2042.6346 2031.6570 2023.3948 2020.0720 2015.7467 2008.7853 2000.6448 1998.8698 2000.0322 2002.1255 2008.3298 2013.8635 2020.0171 2026.1786 2029.8405 2029.9376 2025.5500 2019.2081 2011.7289 2004.7664 1995.9740 1981.1891 1972.1035 1967.1263 1964.6575 1960.1866 1956.1072 1953.5214 1950.9169 1949.0267 1948.7915 1950.7122 1953.2822 1953.6219 1952.6748 1951.7299 1950.5707 1948.9393 1947.9973 1948.2222 1949.2108 1952.1049 1956.7926 1961.4943 1968.6655 1978.3051 1984.7690
2410.1355 2435.3330 2445.6824 2463.1978 2479.7793 2501.3274 2526.8665 2550.1191 2552.8484 2554.3711 2553.9929 2552.9434 2544.2690 2528.6694 2509.1448 2488.3704 2466.8594 2449.1887 2434.6665 2420.0173 2407.5608 2399.9595 2394.9475 2391.4075 2386.0703 2382.4348 2376.4736 2369.0840 2365.1768 2365.2588 2362.4165 2360.3811 2356.4866 2348.6011 2335.3882 2318.9028 2298.6660 2281.7612 2271.0378 2257.3921 2242.9521 2242.8386 2247.3530 2240.5906 2232.7625 2224.2100 2215.6860 2208.3787 2201.7092 2197.4666 2191.1646 2182.5801 2172.2019 2160.8496 2151.6487 2145.8259 2142.7705 2139.4844 2136.0769 2130.9895 2126.7515 2122.4231 2116.4180 2110.1169 2102.0015 2097.0310 2096.2061 2102.6282 2113.1270 2121.7273 2128.4395 2127.9626 2124.5701 2121.7969 2120.1199 2119.2742 2120.5229 2120.7869 2111.0562 2100.3130 2093.6189 2086.4421 2082.7104 2086.1104 2092.9065 2100.0127 2100.5249 2097.3081 2092.7097 2088.7156 2084.4204 2081.0862 2079.8933 2076.1270 2073.9036 2073.6301 2074.1809 2073.7893 2070.6174 2065.0889 2061.2151 2055.3215 2047.9622 2034.5576 2024.4524 2020.8701 2017.2141 2011.4297 2005.4181 2002.6898 2004.3859 2006.2059 2010.0948 2014.9531 2020.8378 2026.3533 2031.3737 2031.1364 2026.6207 2020.1512 2012.7358 2006.3407 1998.0997 1983.6649 1975.0012 1971.7825 1968.1534 1962.7197 1958.9779 1955.8500 1953.9252 1951.8761 1951.5029 1956.1079 1959.7384 1959.5853 1958.1732 1957.2356 1955.2214 1952.5408 1950.9995 1950.9198 1952.3192 1957.1571 1963.9745 1968.1779 1975.4500 1985.2172 1993.3041
2434.7239 2452.9836 2466.2498 2478.5234 2498.3936 2521.2336 2542.6482 2556.7490 2549.5920 2548.4133 2549.5117 2550.0796 2541.6003 2524.3167 2505.6082 2486.3274 2461.9451 2445.4307 2431.4292 2416.2793 2405.1443 2398.4812 2392.9141 2387.8369 2381.5835 2374.8193 2367.0200 2359.5874 2354.2205 2351.2412 2349.7244 2348.4451 2347.3418 2342.5720 2335.7073 2324.1611 2307.7559 2289.8127 2272.0461 2257.0869 2254.2305 2259.9827 2255.5715 2247.6150 2238.7761 2229.6069 2221.6519 2214.9004 2206.4810 2201.2959 2193.9805 2185.0212 2175.7935 2165.3083 2156.1582 2150.1777 2146.5117 2142.2256 2137.8762 2133.4922 2129.2195 2124.4084 2118.0574 2111.5591 2105.2395 2099.9702 2099.4033 2106.7375 2116.6682 2126.4521 2135.0164 2137.3696 2133.4805 2127.4441 2122.9160 2120.7102 2120.8499 2120.6343 2120.3630 2111.5833 2103.3406 2091.9060 2088.0344 2091.3777 2099.0410 2105.1116 2105.7256 2104.0483 2101.9006 2102.0044 2100.4668 2094.8430 2093.0291 2091.8062 2090.7793 2090.5774 2087.6956 2083.9614 2079.9810 2075.0034 2069.2695 2061.6748 2052.7502 2038.9934 2028.5266 2023.4440 2019.9553 2015.5879 2009.3701 2005.6671 2006.9398 2009.0782 2011.5333 2015.9739 2021.1948 2025.2622 2030.9126 2031.2764 2024.9149 2019.8965 2014.6846 2008.1693 2000.0358 1990.8457 1981.7698 1976.7209 1973.1854 1964.2711 1960.9100 1958.5114 1955.8680 1954.3390 1956.3909 1964.7206 1969.5938 1966.6858 1962.7612 1962.8098 1960.9088 1958.4305 1955.5183 1955.1930 1957.6936 1961.5745 1968.8796 1976.5332 1983.0596 1992.8372 2000.4492
2450.1448 2476.1143 2493.9084 2509.4336 2518.4163 2539.5083 2561.0662 2557.5293 2549.2905 2545.2883 2543.2876 2538.7957 2532.2959 2520.2861 2497.0776 2476.3157 2454.5544 2439.5371 2425.0049 2413.2668 2401.1487 2393.1692 2387.0139 2380.5881 2374.1711 2364.7917 2355.2451 2348.8557 2343.0371 2340.5195 2339.9956 2338.5486 2335.8423 2332.1475 2325.3635 2315.0530 2298.0000 2281.4270 2271.0764 2268.0159 2276.2954 2270.2156 2262.3362 2251.4495 2242.2661 2235.7607 2230.6914 2222.9714 2210.6887 2202.7468 2194.5356 2186.3394 2177.9272 2167.4661 2157.2009 2153.1782 2149.0503 2144.9199 2140.4712 2136.4226 2131.6831 2126.0503 2120.0466 2113.1812 2106.4065 2101.5105 2102.1023 2109.8572 2121.2878 2133.3604 2142.0771 2147.2207 2140.4065 2134.2266 2128.4480 2123.5796 2120.9678 2119.6152 2117.7705 2114.7815 2111.4673 2101.2388 2092.4092 2093.8633 2102.6804 2110.4026 2111.3000 2112.0645 2110.7300 2111.8076 2111.6494 2109.6934 2108.5527 2107.0388 2104.1260 2103.4004 2102.3586 2099.1423 2092.9138 2083.3384 2075.5488 2066.4888 2056.5212 2043.8553 2033.6104 2025.4174 2022.7744 2019.9908 2015.0946 2009.2223 2009.5339 2011.1359 2012.1294 2016.3096 2020.9763 2024.8685 2030.4614 2028.9768 2022.4471 2018.2847 2013.1791 2007.8339 2000.9895 1993.6053 1987.2841 1981.6163 1977.3282 1967.0308 1962.0513 1960.8406 1958.3896 1957.9928 1963.8170 1970.6202 1977.3823 1976.2405 1973.0336 1972.0994 1968.9609 1964.0796 1959.6648 1958.8746 1960.9312 1965.1869 1975.4885 1985.5928 1988.6288 1997.7185 2004.4337
2454.1257 2477.2405 2501.2234 2523.4182 2542.4761 2570.0168 2566.9941 2557.6482 2548.1274 2541.3020 2538.9653 2534.0193 2527.2705 2513.2261 2490.9482 2469.5952 2450.3123 2433.9429 2420.0161 2407.0176 2394.5728 2386.5513 2379.4358 2371.0107 2362.5085 2354.8320 2348.0723 2342.4958 2339.3733 2336.2585 2332.8618 2329.5933 2326.9839 2322.4890 2314.2563 2301.3145 2291.7834 2283.7803 2284.8337 2292.8728 2285.1726 2277.0608 2267.1316 2256.8562 2250.2131 2244.6116 2236.1528 2226.9048 2215.4600 2204.4058 2195.0720 2186.9617 2179.4419 2171.5051 2161.5854 2155.9702 2150.5845 2145.2275 2141.4897 2137.8220 2132.9556 2126.1719 2120.1443 2113.1501 2106.7627 2103.6858 2105.9541 2113.8950 2125.5220 2137.1929 2147.4563 2152.0681 2148.0520 2141.2319 2134.5000 2127.3887 2122.4648 2120.0923 2118.0237 2113.9463 2110.4216 2104.9224 2098.4036 2097.5959 2107.1826 2112.9639 2113.8132 2116.0522 2119.1213 2121.7078 2122.5967 2120.2192 2119.9775 2120.0825 2120.7185 2120.4646 2117.2932 2111.2104 2103.8540 2093.2922 2083.5776 2071.7300 2058.9319 2048.5220 2037.8369 2031.2781 2027.6211 2025.9658 2019.9276 2012.8008 2012.3103 2014.6564 2016.3348 2019.7188 2022.6586 2025.4517 2030.6635 2028.5903 2020.9843 2016.4293 2011.6179 2006.0339 2000.0214 1993.9991 1988.1241 1982.4541 1976.6801 1968.0546 1964.1661 1964.2845 1963.4318 1961.5713 1966.0104 1972.9061 1980.0203 1987.2379 1987.8064 1983.2886 1978.0066 1971.3223 1965.1561 1963.1815 1965.9528 1971.7040 1983.2719 1993.8184 2000.8180 2003.9733 2008.8906
2449.9165 2474.1638 2497.3928 2521.3950 2546.9622 2574.1851 2569.2378 2558.8384 2548.4890 2539.0432 2533.8777 2529.5977 2521.9031 2506.2222 2486.8181 2464.6858 2445.8376 2427.9861 2414.7275 2402.9402 2390.6489 2378.6147 2367.4163 2361.9905 2355.7957 2350.7769 2344.4321 2340.0820 2337.4209 2333.6199 2329.4536 2324.5708 2319.8518 2314.3181 2309.0652 2303.1948 2303.8418 2309.3164 2306.5430 2301.5854 2293.4968 2281.8257 2273.2212 2266.1504 2259.1753 2251.9216 2241.3689 2228.9250 2217.8923 2205.2019 2196.1982 2190.2100 2183.2476 2176.6902 2167.9624 2158.8845 2152.7815 2146.6240 2143.0859 2138.6174 2133.1785 2126.1445 2119.5784 2113.3232 2107.5728 2106.0259 2108.8628 2115.8821 2123.2937 2135.5652 2146.5515 2148.7192 2146.6748 2143.3806 2138.4270 2133.3813 2126.3135 2121.2776 2118.9253 2111.6885 2107.6299 2104.2551 2099.8923 2099.9927 2108.0208 2112.6506 2116.2229 2120.1860 2123.9082 2127.0657 2129.0681 2131.4595 2134.1394 2137.0325 2137.1758 2134.5134 2129.6499 2122.6262 2115.7632 2105.0449 2090.3223 2076.3765 2062.8367 2053.4360 2040.6155 2034.6292 2031.2952 2028.9453 2026.1749 2018.9734 2016.9961 2019.1948 2020.4200 2023.4447 2025.0552 2028.9852 2033.7429 2028.9108 2020.8052 2014.9463 2010.0946 2005.4098 1999.8632 1993.9052 1987.7698 1981.8003 1975.7529 1972.6147 1968.7886 1967.4084 1965.0476 1964.5314 1968.4506 1974.1342 1981.1418 1988.5469 1992.7261 1994.0223 1994.6401 1979.5498 1968.6373 1966.7656 1969.8112 1976.6472 1990.4476 2004.1562 2009.8336 2011.9148 2013.5081
2448.4458 2470.8706 2494.4565 2518.4124 2543.9009 2565.8499 2569.1360 2558.6404 2549.3779 2538.6619 2531.6826 2525.2856 2516.2458 2497.9663 2480.8804 2460.5613 2441.8254 2423.5935 2410.4426 2397.1726 2383.4912 2369.3303 2363.5525 2357.8958 2352.9651 2349.3079 2344.4280 2340.0701 2336.5400 2333.5259 2330.5825 2329.3748 2324.6392 2321.4617 2321.7671 2321.4534 2320.9897 2318.6265 2314.5762 2308.4480 2299.2114 2289.1235 2281.0425 2274.9460 2267.8115 2256.4304 2242.2922 2228.9260 2217.5718 2207.5225 2201.4998 2195.2974 2187.2600 2180.7576 2173.2642 2164.3706 2156.9236 2149.3660 2144.7800 2140.1936 2135.0251 2126.9548 2121.2070 2116.2148 2109.5068 2107.9194 2110.3196 2113.9050 2119.8689 2128.7473 2137.1604 2141.3569 2143.0349 2141.8315 2139.6079 2136.4121 2131.1543 2125.3320 2120.6055 2111.4470 2107.6978 2104.3496 2101.5232 2102.6067 2106.9348 2111.3276 2117.0129 2120.6938 2125.7241 2131.4080 2135.5364 2140.3699 2143.8738 2149.0002 2151.8201 2151.0022 2144.3716 2134.8828 2124.2451 2114.4543 2099.9426 2083.5330 2067.5713 2055.7688 2045.6268 2037.5150 2034.1145 2030.9194 2026.9758 2021.7867 2021.0579 2023.2004 2025.9994 2028.1469 2029.9825 2032.4346 2034.6873 2029.4663 2021.0125 2014.7596 2009.9753 2005.4012 1999.8251 1994.5229 1988.3411 1982.3907 1975.8057 1973.6554 1972.8961 1970.7859 1969.1652 1969.8094 1971.7262 1974.9485 1982.5719 1989.1381 1994.4421 1998.1362 2001.4779 1986.8721 1973.3109 1970.5659 1972.6055 1980.9713 1995.4260 2007.9064 2013.6394 2015.2886 2016.1853
2448.7556 2470.0720 2494.1438 2518.3901 2544.7676 2566.0039 2569.7290 2559.5610 2550.8569 2539.7236 2531.4978 2522.2959 2507.8901 2487.3188 2470.6296 2450.6125 2434.0090 2417.8828 2407.3833 2392.3684 2378.1191 2365.7100 2361.9309 2357.0244 2352.5835 2348.8872 2345.0090 2340.6062 2338.3215 2336.9612 2336.9001 2337.5959 2338.3474 2336.0339 2336.2078 2335.4346 2333.4299 2329.7676 2320.1414 2313.2773 2306.7766 2298.0105 2288.9832 2279.1860 2269.9456 2257.1301 2243.3137 2228.9490 2218.1738 2210.4478 2203.8794 2198.0884 2193.5708 2186.3621 2179.1313 2169.4631 2161.1272 2154.0359 2147.7566 2142.8867 2137.5208 2132.0569 2127.3313 2124.3076 2118.2366 2110.9988 2110.9080 2113.0105 2116.4927 2122.4397 2129.7583 2134.9263 2138.1479 2139.8850 2139.9207 2139.6128 2137.4001 2132.6936 2124.8259 2118.7463 2112.0500 2107.2737 2103.1860 2103.8970 2106.6343 2110.3184 2117.3069 2122.7798 2129.1885 2135.8655 2140.6733 2146.3298 2152.8557 2158.9172 2163.4675 2160.3208 2153.2666 2145.0879 2136.0420 2124.2349 2108.5388 2090.3752 2075.8313 2062.3667 2052.9258 2043.7861 2036.2316 2032.0439 2027.7227 2026.2283 2026.6427 2027.9106 2030.0352 2031.9335 2034.7795 2035.6586 2034.2443 2027.0244 2021.1726 2015.2622 2010.5846 2006.2190 2001.4944 1995.6770 1989.1803 1984.6401 1978.7516 1977.6991 1976.9240 1973.9360 1972.8785 1973.5488 1974.5315 1976.3170 1983.8882 1990.3544 1996.6974 2000.9448 2004.2797 1992.3109 1977.6272 1973.7145 1974.8273 1981.7438 1988.2083 2001.3878 2007.5100 2011.6954 2013.5332
2450.6968 2470.9062 2495.1770 2519.8030 2545.1152 2569.6646 2573.2114 2562.9551 2553.6936 2542.5068 2532.2866 2522.5007 2506.7566 2487.3062 2469.2791 2448.5100 2431.2729 2416.5740 2403.1150 2387.7415 2374.1621 2364.4993 2361.6589 2357.7620 2352.9141 2349.5254 2346.6885 2344.7410 2343.4219 2342.0769 2342.0122 2343.9321 2346.4531 2348.7542 2349.5818 2348.8455 2343.9026 2336.8513 2328.3408 2318.1460 2310.6707 2300.9485 2289.9021 2279.1206 2270.4258 2257.5476 2245.9297 2230.7031 2219.9756 2213.0981 2208.4143 2203.6909 2198.1731 2190.2729 2182.2314 2174.7449 2166.5874 2157.9790 2150.3406 2145.0339 2141.4299 2137.9968 2137.4214 2135.9094 2130.1548 2122.7986 2116.5061 2114.4424 2115.4067 2119.2690 2124.9714 2129.7761 2133.6497 2136.9045 2139.9834 2141.0820 2141.8408 2138.9983 2133.7046 2127.8782 2121.2607 2112.4402 2106.9719 2105.1963 2106.3394 2109.6560 2117.7678 2125.0769 2132.1792 2139.4861 2146.9280 2153.8372 2161.6194 2167.1414 2172.0205 2168.2537 2162.5154 2154.8179 2143.3418 2133.5935 2117.8508 2101.5139 2084.2651 2071.2368 2058.6191 2048.5251 2039.4413 2034.5146 2030.5902 2030.2178 2030.8892 2032.7552 2034.5349 2036.8022 2039.0754 2036.8258 2032.5350 2026.8429 2021.3691 2016.6156 2012.1056 2007.6592 2003.3607 1998.2859 1992.9363 1988.6582 1984.2279 1981.8525 1980.1880 1977.8835 1977.3749 1978.5988 1979.4921 1981.2612 1986.2152 1992.7042 1999.6012 2005.6057 2006.4637 1993.4259 1984.0142 1978.0851 1977.9008 1981.0065 1984.5476 1987.8403 1996.3390 2001.8339 2008.5425
2451.2478 2472.7415 2494.7192 2519.0854 2550.4829 2571.1707 2575.1228 2565.9590 2556.7456 2546.8323 2534.8694 2523.6035 2502.4875 2483.3938 2466.1184 2445.4224 2428.7920 2414.9404 2402.8577 2387.7227 2373.8296 2364.5854 2361.3271 2358.3677 2356.9009 2353.6423 2351.4226 2349.6265 2349.0537 2349.4180 2350.8916 2353.9778 2356.4668 2358.0891 2359.0671 2360.9048 2353.8020 2342.8875 2328.2712 2319.0281 2309.2236 2299.5330 2287.7537 2277.2593 2268.9272 2258.2517 2247.8330 2235.0459 2222.8352 2217.6765 2212.4695 2206.8445 2200.6006 2193.9219 2186.8906 2178.4333 2170.0730 2162.3210 2154.1926 2147.0183 2144.6624 2143.2864 2143.2734 2142.9480 2141.7610 2138.6379 2129.8696 2119.6006 2117.2095 2118.3982 2121.5391 2126.8052 2131.6450 2135.3081 2139.8379 2143.1382 2145.8577 2147.8828 2142.0037 2135.3445 2129.0437 2122.2737 2114.1824 2109.0698 2107.3479 2108.8613 2116.0767 2125.0647 2134.5332 2141.9719 2150.5803 2159.1155 2169.8049 2176.4497 2180.8887 2175.6025 2169.3440 2162.7068 2153.5420 2142.5100 2126.7024 2108.7388 2090.7900 2078.6370 2065.9531 2053.5437 2044.6136 2037.8777 2033.7588 2033.9351 2036.5516 2038.0007 2039.6383 2040.6779 2042.2148 2039.5042 2033.7571 2027.3687 2022.3177 2017.7412 2013.3628 2009.0885 2004.9310 1999.5615 1995.7301 1991.4779 1988.8688 1986.1271 1984.1188 1981.3206 1981.2081 1982.6571 1984.3966 1986.9015 1990.7817 1996.7339 2002.1755 2009.3566 2011.6071 1997.4902 1986.8446 1982.8036 1982.5190 1983.4373 1985.3724 1987.9105 1993.1708 1998.6615 2003.2317
2456.6907 2474.6177 2494.6045 2518.4790 2545.5896 2567.4080 2574.7568 2567.3159 2557.9602 2549.2234 2538.0557 2521.2788 2497.6709 2481.0122 2462.2510 2442.8076 2424.9539 2413.4956 2402.7581 2388.8657 2376.0566 2366.7070 2364.4832 2363.6719 2362.4238 2358.3992 2355.5288 2354.0232 2355.4250 2357.9683 2360.8987 2361.6313 2363.7327 2366.4209 2369.1594 2362.2556 2349.5144 2337.3733 2325.4392 2316.7117 2306.8350 2298.2048 2287.1265 2276.6997 2268.1035 2258.9333 2247.6340 2236.2458 2228.8972 2223.5698 2217.8796 2208.0964 2203.7761 2197.5994 2189.4651 2180.8755 2173.4211 2166.7703 2160.0239 2152.2151 2149.3801 2149.4226 2149.1018 2148.7783 2147.9128 2145.4390 2136.8606 2127.9626 2121.4329 2120.2834 2120.9111 2125.4470 2130.6914 2134.6333 2139.9648 2144.6255 2147.8181 2150.5967 2151.5203 2146.8643 2139.6917 2129.8733 2120.9856 2113.5239 2109.8835 2109.5791 2112.9521 2121.0977 2130.1350 2139.8840 2152.0442 2164.1973 2176.0840 2182.5569 2190.0168 2188.5549 2180.1926 2170.9624 2161.1982 2150.2903 2136.6531 2118.9277 2101.7944 2085.5181 2070.3005 2058.4299 2051.2214 2044.3956 2038.1959 2038.1527 2040.4061 2041.9567 2044.4901 2046.7208 2047.5496 2043.9125 2037.5065 2029.2435 2023.8502 2020.2216 2015.5916 2011.4747 2007.1129 2002.1997 1998.8228 1995.3990 1992.4349 1989.1437 1987.9196 1985.6233 1985.8315 1987.3461 1989.4496 1991.9106 1995.7911 2000.3680 2005.2843 2010.7919 2015.0243 2006.2324 1995.4122 1988.3470 1987.7144 1987.5605 1987.7974 1991.7273 1999.3618 2002.6523 2004.1713
2463.4590 2477.7576 2498.4971 2521.1265 2549.0630 2568.5959 2576.6597 2568.9312 2560.6289 2551.9277 2539.1567 2516.6604 2492.8965 2476.4583 2457.3684 2436.4255 2420.6853 2408.9739 2401.2915 2392.7036 2384.5891 2375.0933 2369.3889 2369.1941 2368.2954 2367.1587 2364.8040 2364.8323 2365.8279 2367.2126 2369.5464 2371.7380 2372.1904 2371.9419 2364.5723 2351.8232 2341.7397 2332.2922 2322.1355 2312.8027 2303.7991 2296.1401 2286.5059 2276.4939 2266.8674 2257.6648 2247.4141 2240.8809 2236.5571 2232.6069 2223.5203 2214.9497 2207.1138 2201.3706 2193.1577 2183.4102 2176.7258 2170.7891 2164.2065 2158.8987 2156.0391 2154.6843 2152.3447 2151.1953 2150.4016 2148.5889 2141.9912 2132.1990 2124.3242 2122.7107 2122.2998 2125.3682 2130.5193 2134.6396 2141.0349 2146.1919 2150.4746 2154.1790 2158.2520 2155.6729 2149.5056 2141.4937 2130.8684 2120.8521 2114.3745 2111.6211 2112.0520 2117.0310 2124.3398 2135.4692 2148.0703 2164.5315 2178.4846 2190.4709 2200.2422 2201.2256 2193.0632 2179.8257 2169.8752 2160.4531 2145.6448 2127.6052 2111.4846 2093.8994 2081.5908 2069.3096 2060.1814 2051.4229 2043.9321 2042.1823 2043.6626 2046.5831 2049.4932 2052.1626 2053.0884 2051.0847 2043.7885 2035.6577 2027.4034 2023.0554 2018.7642 2015.2822 2011.5042 2006.5792 2001.9430 1998.0979 1996.2577 1994.5317 1991.8633 1989.4695 1989.6102 1991.0348 1994.4253 1998.6465 2002.3165 2005.8534 2008.7349 2012.3676 2017.0410 2015.1597 2008.2996 1999.6398 1993.4156 1992.6165 1992.9290 1997.0439 2004.4491 2010.6820 2011.0897
2472.4424 2488.0242 2508.8179 2528.9360 2552.8457 2571.8196 2581.2935 2574.3579 2565.0486 2554.5381 2533.2446 2510.1799 2490.8787 2473.9150 2453.7178 2428.0903 2412.6572 2403.1892 2398.8979 2394.4849 2388.4863 2378.5911 2375.2891 2377.6841 2378.7300 2375.9695 2373.6252 2373.8208 2377.1267 2379.8538 2382.3564 2378.9902 2373.1575 2363.2405 2353.1956 2343.4875 2334.6655 2325.8113 2316.9045 2309.7612 2302.0999 2294.7153 2285.1917 2276.2693 2266.9736 2259.5835 2254.0615 2246.3298 2240.2292 2235.5237 2228.9219 2221.8088 2212.7439 2204.0410 2194.9504 2186.0967 2179.2815 2174.3892 2168.6621 2162.8782 2160.1621 2157.9265 2156.0681 2153.7551 2151.7908 2149.3879 2144.0635 2135.0999 2129.0833 2125.1489 2124.1511 2125.7571 2130.4514 2135.1401 2141.3625 2147.8269 2152.9360 2157.8638 2161.2285 2162.7295 2160.9358 2153.0786 2141.1394 2127.3394 2119.3579 2115.0005 2113.6292 2116.2109 2120.5361 2128.3274 2141.6475 2159.4429 2175.6257 2190.2363 2202.9773 2207.5603 2202.6782 2192.6284 2180.9309 2167.4846 2153.8447 2138.2207 2121.1687 2104.3726 2090.1414 2078.3252 2068.5896 2061.2119 2052.3926 2047.7189 2047.4138 2049.5962 2053.0669 2056.9058 2061.3892 2059.8105 2050.3645 2040.8284 2033.9154 2026.5704 2021.6399 2017.9006 2014.0886 2009.6234 2005.3596 2001.1241 2000.9048 2000.3411 1995.7080 1992.2791 1992.8385 1995.2371 1999.4517 2003.6124 2006.7617 2010.1365 2012.5652 2016.1492 2020.5123 2021.4497 2016.1389 2006.5344 2000.4102 2000.5031 2000.0033 2000.5226 2008.3364 2015.4427 2018.1677
2482.2610 2498.7051 2517.5911 2539.4131 2561.4102 2573.6665 2579.0918 2573.8164 2564.2793 2550.1841 2526.8765 2504.4609 2487.8384 2470.5178 2451.6631 2426.8411 2409.6736 2400.9045 2396.9438 2391.8176 2385.1919 2382.1279 2383.7178 2386.7651 2389.4319 2391.2400 2387.0166 2387.0544 2390.5229 2392.4309 2391.5669 2382.5366 2367.8040 2354.1438 2347.3193 2339.3167 2329.6248 2323.3733 2315.7991 2308.8394 2302.1050 2293.7280 2285.8057 2278.8242 2272.6233 2267.5205 2260.1772 2250.6902 2242.7429 2237.0330 2230.9358 2224.1531 2216.6982 2207.6223 2198.5183 2189.8689 2182.0625 2176.2085 2170.6458 2166.7085 2162.8223 2160.3418 2157.1868 2154.6960 2152.3191 2148.5684 2143.0518 2134.6147 2130.5093 2126.6223 2125.2839 2126.7136 2130.9832 2135.4631 2141.4744 2147.3274 2153.5720 2159.3000 2163.3872 2165.6638 2165.9900 2160.7236 2152.5371 2139.0833 2124.9221 2117.9155 2115.2881 2116.5691 2119.2434 2123.4070 2135.1489 2154.7434 2169.9551 2186.7717 2200.7449 2212.9094 2208.2437 2200.4487 2188.3225 2175.3647 2161.2688 2144.1987 2128.1707 2113.0449 2098.5710 2087.1111 2077.5564 2068.9673 2062.3674 2054.7422 2052.2957 2053.2793 2057.0229 2061.1460 2065.0891 2067.6997 2059.9858 2050.9602 2040.3792 2029.0688 2023.6232 2020.6895 2016.9955 2013.6919 2009.7437 2007.2108 2006.7042 2005.6332 2001.7974 1995.8319 1995.6390 1997.3834 2001.3761 2006.8047 2011.7142 2015.2095 2017.7247 2020.0074 2023.8097 2027.2391 2020.7520 2011.6495 2006.3940 2004.9122 2005.0846 2007.0631 2012.1373 2018.9235 2024.1770
2491.7207 2507.2734 2523.4668 2542.2185 2561.6270 2572.6975 2576.4565 2570.3850 2560.1467 2542.4319 2521.0208 2500.6123 2482.3389 2466.4812 2449.9883 2427.1118 2409.8445 2400.8965 2396.0891 2390.9170 2387.7339 2388.1726 2391.5669 2397.5588 2402.8091 2404.3391 2401.6838 2403.8628 2407.5056 2406.5403 2399.7844 2384.4639 2368.1716 2354.4846 2347.9807 2340.7292 2331.4902 2323.9067 2316.8462 2310.6943 2303.6604 2296.8206 2289.7361 2281.9287 2276.2307 2272.8469 2265.8467 2255.7234 2244.7971 2238.0344 2231.2202 2225.6997 2219.2239 2210.6926 2202.0083 2194.2131 2186.1396 2179.5701 2173.3193 2168.7075 2164.4253 2161.3398 2158.0085 2154.3894 2151.0298 2146.8928 2139.7891 2133.7549 2130.5645 2127.8516 2126.6877 2128.1812 2131.6501 2135.6055 2140.9973 2146.6023 2152.6946 2158.6892 2163.5012 2167.0525 2170.2036 2169.3022 2158.7854 2146.2561 2133.0571 2122.0911 2117.7900 2117.3940 2119.0735 2121.4458 2130.9204 2149.1023 2166.1533 2184.2668 2198.2639 2211.4968 2219.4597 2209.8372 2199.8120 2182.7144 2168.6594 2151.1001 2134.9001 2119.8435 2107.0681 2091.9053 2083.2151 2076.2610 2071.5969 2064.6292 2057.8325 2057.6819 2060.1753 2064.4104 2069.6382 2074.4094 2070.6897 2059.9336 2047.7754 2036.2087 2028.3413 2023.6014 2020.2413 2016.0769 2012.9434 2013.1288 2014.2528 2013.4225 2007.4545 2000.5736 1998.4043 1999.6671 2004.3015 2010.9197 2015.1355 2018.4102 2021.2671 2024.5194 2028.9958 2031.9302 2025.6764 2015.3951 2011.4496 2010.4412 2010.0492 2010.7869 2014.9850 2022.9135 2028.1973
2503.2510 2516.4541 2531.8740 2551.3726 2565.1196 2572.9666 2576.1565 2567.4631 2554.3809 2534.1216 2513.7634 2488.3928 2471.8657 2460.3972 2442.3484 2425.6741 2411.5969 2401.8687 2396.2795 2393.8835 2394.6670 2398.7454 2402.4919 2408.7988 2412.0879 2416.0483 2418.2551 2419.6750 2420.7244 2414.3130 2406.3979 2392.0820 2377.4905 2367.5103 2357.0894 2348.4128 2338.0188 2328.4026 2319.1750 2313.1318 2305.6025 2300.5659 2293.3877 2285.7021 2279.8813 2276.1572 2269.6782 2258.8970 2247.8276 2239.2759 2230.5073 2223.2542 2218.2793 2212.4106 2205.5464 2198.3037 2190.2756 2182.3743 2175.6528 2170.3948 2166.3096 2162.0815 2158.1494 2154.4409 2149.4880 2145.4731 2139.6877 2134.0295 2130.6077 2128.1904 2127.8730 2129.4917 2132.5581 2135.6917 2141.2749 2145.9333 2152.4639 2158.0183 2163.6082 2168.2009 2172.1152 2174.8518 2169.4905 2158.0950 2144.6609 2130.4890 2122.0269 2120.0491 2119.9517 2121.2278 2128.1812 2142.7632 2160.6938 2178.4946 2195.4060 2210.3303 2220.0820 2216.7935 2206.7034 2194.0574 2178.1062 2160.3450 2142.9814 2126.8267 2113.5981 2101.3306 2090.0073 2082.8245 2077.2751 2070.8601 2063.8257 2062.3315 2066.0786 2070.2827 2073.5327 2077.8269 2076.8462 2072.0186 2058.6514 2043.3948 2033.4597 2027.8425 2025.6484 2021.9237 2021.5020 2021.7058 2021.7229 2020.5397 2015.8373 2008.0247 2002.5573 2003.3934 2008.2397 2014.5229 2020.3604 2023.1190 2025.1853 2029.8201 2034.9017 2039.3475 2035.7550 2028.5133 2019.1869 2013.0645 2013.2134 2015.3088 2018.6462 2024.8864 2030.4594
2513.2156 2529.3625 2546.1443 2562.7825 2572.3901 2577.1289 2577.1047 2567.5549 2550.6606 2530.7244 2509.3186 2485.2607 2470.1069 2453.7908 2436.3850 2420.2964 2410.9700 2402.2791 2399.4353 2399.8572 2403.3599 2407.8730 2410.9038 2416.9829 2423.1511 2427.5181 2429.9609 2430.2212 2429.3584 2425.2771 2418.1665 2407.0537 2389.2126 2379.6895 2367.5962 2359.0120 2344.5024 2333.5916 2324.6821 2316.8362 2311.5244 2307.1733 2300.4490 2292.6372 2285.4771 2280.1125 2274.3274 2264.8743 2253.7449 2242.1414 2232.2080 2222.6958 2217.0828 2211.9661 2205.8606 2199.5767 2192.5215 2185.2295 2178.4519 2172.6580 2167.5947 2162.8601 2158.6084 2154.4331 2149.0608 2144.7761 2140.4500 2135.6399 2130.7241 2129.6230 2129.8538 2130.9185 2132.7366 2135.1772 2141.7234 2145.8374 2153.0205 2158.0547 2164.0681 2169.6125 2173.8542 2179.1211 2177.1011 2168.6663 2155.1946 2142.1270 2131.7156 2123.8323 2122.2065 2121.8613 2127.6458 2139.0574 2154.6482 2174.8608 2191.3838 2208.2327 2218.7524 2222.1870 2213.9644 2201.3323 2183.8547 2167.0215 2150.4258 2133.8982 2120.4780 2107.2898 2096.3074 2087.5286 2082.5034 2077.1128 2073.6506 2069.3682 2072.0195 2075.2810 2077.3245 2080.7715 2080.0693 2074.6406 2064.9075 2052.2747 2040.2500 2034.3262 2030.3438 2025.3053 2025.4238 2028.1002 2029.5199 2028.6453 2022.8459 2013.5217 2006.9293 2006.7518 2010.6832 2018.3914 2027.1354 2031.0179 2033.9128 2038.1436 2045.2457 2050.3818 2047.2062 2039.9910 2028.2721 2021.8541 2021.7400 2023.3145 2022.8282 2026.4275 2033.9377
2532.7278 2551.2869 2562.6316 2576.4458 2580.7065 2583.5139 2580.3542 2567.5149 2548.7146 2526.1077 2507.2229 2487.1675 2470.6147 2453.9019 2435.8831 2419.7993 2411.3882 2407.0459 2404.1091 2405.9631 2412.6694 2417.7288 2420.5024 2426.6914 2433.4700 2436.6465 2439.1631 2439.7180 2440.2063 2436.2061 2429.9043 2420.2871 2408.3142 2394.4561 2382.6501 2366.1926 2354.5234 2343.8596 2333.3660 2325.8020 2318.6929 2312.4553 2306.2563 2300.0942 2294.6729 2289.4187 2280.4253 2270.4856 2257.8125 2248.2043 2238.7986 2228.4380 2218.1987 2211.2581 2204.8159 2199.3218 2193.0317 2185.5532 2179.1760 2173.3188 2168.3542 2163.4849 2159.2290 2153.8857 2148.7188 2144.7595 2141.0654 2136.4307 2132.4146 2130.9648 2131.4023 2132.0544 2133.6025 2137.3926 2144.1255 2148.3948 2156.2258 2161.5996 2168.0415 2174.2725 2181.5322 2183.2932 2183.6067 2180.0073 2170.2119 2154.4121 2140.4634 2132.2188 2129.3350 2127.8125 2128.8413 2139.5083 2152.0850 2171.9485 2186.1414 2205.2168 2217.0254 2224.2795 2217.2891 2204.0938 2188.1558 2171.5171 2156.6687 2139.8071 2125.3450 2113.3457 2102.9404 2094.3518 2087.3328 2083.0322 2079.3223 2076.5862 2077.9551 2081.1633 2082.1204 2082.2402 2081.2356 2075.4602 2065.6172 2055.6787 2045.8379 2038.8033 2036.7734 2033.4921 2033.6381 2035.0890 2035.1644 2034.2849 2031.0135 2024.6439 2015.7284 2011.7990 2013.2482 2021.7721 2032.2859 2041.5682 2045.3549 2048.3052 2052.1909 2057.5576 2059.2942 2050.8875 2039.0869 2026.9121 2027.3622 2029.9009 2030.1842 2032.8730 2038.9941
2545.5691 2566.0564 2584.5901 2590.5667 2589.4734 2589.0530 2578.2002 2563.7644 2539.8625 2520.3452 2501.8306 2485.8284 2470.8777 2453.4587 2437.4146 2426.1736 2418.3545 2412.2788 2411.5024 2416.3303 2421.6233 2424.4841 2426.8257 2435.2715 2442.0942 2445.9070 2448.1375 2447.7876 2448.1062 2447.8855 2444.5535 2436.8782 2423.2771 2408.2573 2395.5442 2381.6470 2367.9583 2356.3875 2343.3889 2334.0583 2326.1873 2318.9758 2312.5325 2305.4834 2301.1174 2297.2324 2290.5142 2277.9824 2264.8289 2252.7935 2243.9072 2232.9065 2221.4897 2211.8733 2205.0701 2197.8323 2191.8557 2186.3555 2180.0500 2173.9688 2168.5627 2163.4053 2158.6089 2153.3416 2148.2549 2144.8464 2141.9011 2138.1155 2135.6089 2132.3796 2132.5947 2133.6895 2135.6890 2141.5344 2148.2207 2155.2529 2162.1689 2167.9482 2174.2522 2183.4363 2189.0288 2193.5154 2196.6772 2192.2935 2180.3640 2165.2334 2151.3457 2141.9272 2139.6821 2135.8477 2134.7195 2140.8594 2151.3235 2168.0933 2183.9021 2201.0391 2214.6997 2223.3257 2222.9612 2207.7830 2190.1226 2172.9768 2159.1482 2145.4236 2130.5964 2119.2859 2106.9946 2098.7480 2093.2461 2090.3455 2086.7878 2086.1597 2085.4275 2085.2102 2085.5935 2085.9653 2084.0229 2077.0986 2068.0203 2057.9656 2048.9656 2044.3879 2039.9000 2036.9091 2038.4862 2041.1776 2042.5352 2042.6426 2040.1841 2032.7805 2023.2168 2018.1704 2019.6917 2024.2535 2034.9972 2047.3031 2051.9309 2053.7024 2058.0913 2062.4656 2063.4490 2057.3696 2046.7708 2037.3328 2038.5428 2038.4532 2037.7189 2038.6692 2044.7267
2556.0466 2579.0706 2599.4397 2596.5613 2595.9490 2592.1514 2577.6140 2559.6711 2535.8220 2511.6333 2497.6919 2484.9182 2473.0247 2462.0374 2449.9150 2438.8235 2428.1682 2420.9036 2421.6746 2425.6934 2429.4521 2431.4128 2436.2913 2443.9597 2449.9753 2452.6377 2454.7004 2456.1438 2458.4714 2461.9001 2457.2808 2450.0308 2437.0916 2423.7261 2410.0359 2395.4163 2379.5039 2366.0916 2355.3169 2344.0918 2335.3801 2326.1768 2318.7095 2312.6777 2308.8735 2304.2588 2295.7590 2282.0793 2271.0669 2257.5359 2248.8403 2237.2112 2225.1206 2215.3091 2206.6658 2197.0371 2191.5291 2185.5605 2179.5425 2172.9412 2167.8245 2162.8418 2157.8982 2153.3120 2148.3533 2144.8130 2142.3640 2139.4229 2136.8315 2133.6272 2133.7246 2136.4021 2141.0012 2148.1750 2154.7007 2162.2390 2167.1829 2173.9761 2184.1343 2193.3845 2200.2051 2203.9998 2207.8923 2204.9465 2193.5742 2175.9978 2159.4849 2151.1387 2148.7344 2146.4822 2142.8379 2145.7593 2154.1140 2166.9424 2182.7708 2199.0776 2212.6641 2222.6572 2226.4958 2213.6836 2196.4634 2177.3660 2163.2585 2150.6243 2136.1870 2124.9783 2113.0398 2104.5906 2098.3154 2095.4712 2092.2539 2092.0566 2092.8650 2092.4587 2091.8821 2089.7844 2087.9883 2083.5786 2074.0852 2064.7131 2054.9827 2048.0557 2045.0828 2044.2261 2045.9779 2049.1824 2049.8105 2050.1299 2050.1189 2044.6018 2035.7229 2026.0712 2026.8248 2030.3795 2036.7600 2048.5447 2054.0986 2058.4607 2061.8960 2064.6189 2065.8535 2063.8948 2057.1194 2048.6167 2048.6863 2046.1248 2045.6881 2046.6239 2052.0393
2563.9727 2588.5222 2603.7368 2607.8325 2607.6736 2596.1033 2577.5286 2558.9607 2538.6331 2517.0837 2503.7629 2493.0984 2482.4124 2471.8984 2458.8147 2445.1238 2433.5774 2429.6477 2433.6455 2437.9299 2437.0972 2438.7344 2445.3247 2451.8726 2455.7222 2459.0400 2461.8604 2464.1577 2465.9434 2469.1924 2472.1929 2465.2156 2450.5598 2433.2378 2419.4653 2406.9028 2394.5278 2378.8606 2364.8623 2352.4563 2341.8657 2334.2332 2326.9993 2320.4509 2314.2007 2308.0559 2299.6313 2288.4150 2276.0540 2264.2874 2252.1877 2240.7544 2229.6042 2218.1577 2208.4397 2197.6831 2191.6121 2184.1785 2178.9404 2171.9922 2167.4868 2162.4673 2157.6013 2153.1042 2148.6355 2145.2454 2142.8804 2139.9116 2137.4531 2135.0325 2135.5308 2140.5330 2146.7405 2153.2297 2161.0671 2168.7007 2175.9634 2185.5654 2194.6917 2202.1704 2210.5837 2217.7544 2223.5564 2219.8674 2202.6323 2187.6875 2170.9890 2162.9004 2158.7939 2154.6626 2149.4109 2149.9761 2156.3337 2166.9329 2182.9224 2197.3708 2211.9087 2222.6450 2230.2734 2220.2720 2202.5667 2182.1287 2168.4941 2157.2610 2146.2510 2136.2749 2122.3535 2110.2563 2104.8826 2101.8010 2099.8730 2099.8220 2099.3823 2098.1147 2096.4692 2094.0554 2092.5591 2088.2351 2079.1450 2070.5981 2063.3838 2055.8845 2049.9404 2048.8784 2050.2058 2054.5918 2057.0012 2058.3813 2059.5015 2056.1179 2044.3048 2033.2794 2033.9482 2037.2703 2042.9899 2049.9294 2055.8293 2059.9072 2064.1187 2067.7671 2069.3181 2067.2979 2064.3169 2062.6743 2059.1270 2054.1753 2053.1472 2052.5825 2058.5034
2577.5168 2600.9150 2613.8550 2616.9207 2611.2471 2595.2212 2578.7065 2560.2473 2545.2036 2531.3872 2517.6611 2505.0249 2490.9814 2476.7668 2463.6006 2452.3223 2440.6853 2439.7505 2444.8857 2442.8250 2441.8645 2445.7390 2453.5715 2459.0510 2463.1345 2464.4353 2467.4016 2469.9573 2472.8604 2476.0037 2480.2175 2475.6753 2459.1470 2443.3840 2428.7361 2416.7041 2402.9390 2388.9773 2375.6960 2362.0710 2351.5828 2340.9265 2333.2878 2326.2258 2318.8420 2311.9207 2304.2793 2293.7256 2280.4963 2270.3320 2258.5947 2247.2749 2234.5039 2219.6536 2208.6135 2198.2026 2193.5437 2185.3394 2179.0381 2172.6243 2167.2290 2162.1973 2157.6821 2153.2590 2148.9763 2145.8774 2144.4290 2141.7024 2138.9978 2137.5181 2138.4812 2143.8271 2150.5676 2158.9470 2167.3318 2175.8569 2183.5671 2192.8762 2204.1284 2214.8423 2224.1863 2230.8999 2234.1648 2233.4226 2213.2742 2197.7126 2184.6587 2171.4739 2166.2773 2162.9824 2158.2273 2157.0247 2160.8604 2168.2175 2180.9993 2194.7380 2210.2739 2222.0906 2232.5701 2224.2673 2207.7000 2188.6550 2175.0667 2164.3130 2153.8123 2144.7141 2133.4583 2118.7224 2111.3843 2108.1626 2105.6890 2105.5159 2105.7678 2104.7305 2102.2737 2097.8779 2094.5789 2090.4680 2084.0642 2076.6226 2070.5288 2063.9810 2058.9753 2056.7058 2056.8176 2061.6384 2064.7864 2065.8821 2066.8508 2067.4717 2059.6860 2041.6576 2040.9379 2043.3824 2047.4741 2053.7563 2059.4419 2062.4041 2067.0786 2070.7332 2071.9968 2071.6404 2070.8962 2069.7498 2065.1277 2060.2588 2059.2231 2059.6995 2064.9338
2582.4287 2603.7747 2617.5286 2620.9497 2606.4497 2585.9048 2570.4871 2550.2346 2538.7993 2536.7295 2528.8689 2513.1174 2498.8923 2489.9934 2477.3953 2461.9412 2449.6328 2448.3547 2451.6929 2448.4556 2448.3445 2451.6438 2460.6030 2465.4460 2469.2805 2471.3110 2473.9470 2476.6338 2479.0503 2482.1785 2486.2808 2484.6094 2468.3933 2451.6094 2439.5125 2427.0762 2415.2078 2401.4548 2389.3579 2370.1636 2358.3027 2347.8745 2340.1072 2331.9512 2324.0569 2315.2085 2308.3403 2298.8108 2287.6799 2276.8037 2264.6577 2250.9155 2237.9949 2223.3176 2208.6589 2202.7341 2197.0337 2187.6917 2180.1753 2173.5078 2167.3164 2161.4219 2157.4470 2154.3982 2150.3579 2147.9346 2147.2434 2143.0955 2140.2607 2139.7554 2141.5247 2146.9558 2155.1997 2163.4253 2171.6492 2181.6428 2191.0671 2202.2368 2214.7185 2223.8955 2232.3135 2240.6431 2246.6470 2244.4346 2223.4700 2204.6597 2193.0088 2182.3928 2175.6592 2172.2014 2165.7161 2162.7964 2164.2500 2169.7231 2180.2234 2193.1614 2208.1992 2222.0264 2233.3257 2228.8293 2208.5103 2191.8923 2180.1450 2170.3152 2162.2930 2152.9570 2141.8887 2124.9929 2118.8513 2114.7092 2113.1692 2112.5190 2112.9766 2111.0254 2108.2676 2103.2134 2097.6484 2093.2168 2086.8716 2079.6980 2073.8323 2069.0339 2065.3999 2063.1650 2063.7192 2066.9919 2070.2673 2074.1213 2076.1724 2077.4797 2067.6702 2050.6030 2046.4944 2048.5974 2051.5945 2059.3174 2064.2598 2068.4087 2071.2834 2074.3042 2075.5239 2075.1631 2074.9585 2074.8494 2073.8782 2069.4536 2067.5798 2067.7585 2070.7134
2587.6670 2606.2529 2622.4583 2619.8257 2596.9507 2572.7136 2552.8054 2536.8220 2534.7505 2532.5483 2531.0181 2523.5251 2513.3496 2501.2209 2482.8396 2465.3159 2464.2979 2466.6431 2453.8569 2450.5862 2451.7070 2459.1145 2467.3979 2473.4763 2477.6777 2477.7275 2479.6172 2482.9238 2485.8779 2489.9695 2493.6436 2491.8877 2476.5110 2467.6802 2454.7368 2439.5486 2426.1982 2413.3962 2400.4536 2386.5913 2370.3665 2357.6064 2346.1934 2337.5503 2328.2729 2319.9863 2312.6587 2303.6184 2293.6558 2281.5781 2270.6587 2254.0801 2240.7241 2226.9346 2213.6414 2205.0083 2197.6829 2189.9395 2182.2881 2174.4653 2168.0415 2161.4646 2157.5181 2154.7944 2152.3630 2149.8279 2147.7295 2143.9429 2142.9917 2143.2190 2145.4221 2150.0510 2158.8474 2166.1108 2175.0781 2185.4739 2196.7898 2208.8821 2220.3281 2232.1072 2240.1990 2249.0374 2256.1221 2250.5791 2229.6819 2211.6409 2201.8071 2190.5393 2183.7268 2179.2339 2175.2566 2170.1838 2169.4158 2172.8513 2180.5337 2192.2361 2207.8887 2221.8872 2234.2498 2233.9692 2212.8638 2197.4985 2186.5396 2177.5930 2167.6938 2157.4534 2148.0044 2136.3931 2128.5212 2122.5913 2118.9026 2119.4102 2119.5259 2119.5693 2116.6099 2110.4834 2101.7922 2096.0312 2090.3948 2084.2925 2079.6174 2074.3916 2070.7722 2069.9844 2070.1453 2073.1221 2078.1860 2082.3779 2084.4468 2086.3706 2076.1238 2057.3044 2052.8308 2055.1077 2057.2517 2062.5876 2070.6211 2075.1028 2075.8259 2076.5791 2077.7515 2078.2324 2078.5122 2078.8047 2077.9397 2075.4805 2074.5725 2074.4185 2078.6094
2596.2065 2612.2595 2628.2676 2619.1221 2591.2056 2563.4780 2542.6167 2534.2781 2534.1145 2534.3525 2534.4326 2528.7544 2520.4707 2503.0879 2492.6274 2492.7422 2484.6685 2468.5093 2458.4661 2457.8745 2465.8750 2474.7825 2481.2856 2483.9470 2486.0776 2486.9282 2487.0593 2490.3647 2493.8347 2496.3889 2500.0732 2498.6313 2489.5117 2480.9482 2468.4128 2453.4856 2438.2410 2425.1111 2412.9246 2399.0371 2381.5815 2366.4653 2355.3835 2346.3442 2335.5967 2324.7266 2316.5391 2308.3992 2298.3606 2286.5171 2273.0759 2257.8394 2243.1006 2232.7830 2219.8093 2208.2979 2199.0139 2190.9514 2183.1311 2175.4111 2168.7852 2162.6023 2158.0439 2155.6272 2153.2710 2150.5754 2148.0332 2145.6658 2145.3320 2145.5798 2148.1650 2154.1724 2161.5034 2168.4771 2177.1509 2187.3816 2198.8665 2211.1941 2223.9763 2234.2639 2241.7212 2250.7263 2258.0632 2259.0508 2241.9070 2220.8176 2207.9399 2199.7649 2192.8850 2187.4148 2182.6016 2176.5950 2175.6030 2178.6387 2182.1902 2193.9802 2209.0305 2222.5129 2235.2839 2239.9749 2220.1528 2204.6086 2192.9993 2183.7576 2174.5449 2164.7651 2155.5916 2146.4360 2135.1487 2128.2671 2126.3469 2127.9355 2129.3362 2127.9993 2124.6868 2117.9836 2109.6208 2101.2468 2095.2095 2089.4912 2085.9651 2080.5796 2075.4851 2073.2563 2073.3850 2077.6846 2082.9951 2087.1228 2089.8699 2092.4978 2080.6831 2061.9260 2058.8706 2061.4204 2064.4353 2068.7217 2073.8176 2076.6917 2078.3806 2079.3171 2080.3008 2081.3152 2081.8884 2082.2847 2082.5996 2082.4846 2082.4390 2083.0530 2086.1965
